# .PCD v0.7 - Point Cloud Data file format
VERSION 0.7
FIELDS x y z normal_x normal_y normal_z curvature
SIZE 4 4 4 4 4 4 4
TYPE F F F F F F F
COUNT 1 1 1 1 1 1 1
WIDTH 628
HEIGHT 1
VIEWPOINT 0 0 0 1 0 0 0
POINTS 628
DATA ascii
0.81488162 19.140894 5.6670756 -0.081599563 0.57231218 0.81596929 0.09275347
3.7356958 19.310841 5.8701777 -0.062451147 0.55841029 0.82722855 0.076508731
8.1385069 19.321503 5.9036837 0.037207071 0.5681026 0.82212126 0.065014556
10.971251 19.488726 5.6792293 0.069541506 0.55833441 0.82670182 0.074566372
-1.273652 19.314543 5.3691225 -0.050733972 0.57807285 0.81443071 0.10554619
1.9413934 19.455847 5.6178718 -0.089283414 0.5665766 0.81916326 0.088125065
11.45446 19.424232 5.6796436 0.07276579 0.55549079 0.82833707 0.076114267
-4.6369009 19.441332 5.5423136 -0.2970399 -0.71225029 -0.63644856 0.14290673
-3.9701462 19.19906 5.4985657 0.21306038 0.67653376 0.70502895 0.13564426
-1.1368003 19.16164 5.455195 -0.044217668 0.58817619 0.80753064 0.10318711
-1.6538273 19.351091 5.3078442 -0.038005646 0.58087838 0.81312543 0.10937972
1.2521483 19.476982 5.5091929 -0.099340387 0.57501441 0.81209725 0.089649722
-0.61757529 19.419088 5.3346529 -0.061726578 0.58121777 0.81143391 0.099779561
3.6310563 19.548927 5.722681 -0.065852642 0.57256496 0.81723273 0.076701276
-6.3055029 20.36743 5.6141825 -0.62233174 -0.73561323 -0.270208 0.13162395
-5.2810826 19.679792 5.6909537 -0.44753307 -0.73786759 -0.50572622 0.14668767
-0.29167995 19.235443 5.4886036 -0.069799401 0.57886475 0.81245744 0.097488388
9.3249865 19.602806 5.6905756 0.042255655 0.58223569 0.81196249 0.071734756
5.7275486 19.654507 5.7435718 -0.0083703911 0.58676565 0.80972183 0.071058445
9.0388098 19.595747 5.6894693 0.029559825 0.58374983 0.81140226 0.070003189
6.3169832 19.707422 5.6900964 -0.0030358781 0.59234262 0.80568963 0.070152014
12.848574 19.423668 5.484601 0.089372098 0.57467729 0.81350267 0.077499673
9.9697647 19.574379 5.6889806 0.048430949 0.57117856 0.81942254 0.073914587
12.574654 19.474379 5.4982028 0.088979401 0.5730148 0.81470722 0.076024324
9.3387442 19.386253 5.8013539 0.046933927 0.56002527 0.82717329 0.068731219
6.9567499 19.489201 5.8350291 0.021662174 0.58193272 0.81294841 0.067405455
13.371811 19.25095 5.4860396 0.078642361 0.56422508 0.82187581 0.074433863
15.493772 20.072582 4.7646403 0.050812181 0.62355846 0.78018391 0.075205863
19.595913 19.802956 4.9120426 0.073422328 0.52361608 0.8488149 0.10143224
18.78002 20.061922 4.7817359 0.035118669 0.54972094 0.8346495 0.096982852
18.79726 19.892506 4.9298315 0.036096461 0.54164988 0.83985543 0.10101512
19.315296 19.5275 5.1298866 0.052952051 0.50717038 0.86023808 0.10006768
20.472742 20.047754 4.6583285 0.079025798 0.49759546 0.86382145 0.10325015
21.401703 19.701786 4.8896875 0.10800882 0.44410288 0.8894611 0.1144843
21.01059 19.689747 4.9536161 0.099153675 0.44482726 0.8901428 0.11515103
21.523563 19.82933 4.7953153 0.1070962 0.44621629 0.88855249 0.11198994
22.888834 19.564095 4.8281984 0.12557082 0.42321634 0.89741129 0.12790394
15.367229 19.603569 5.1554461 0.057449754 0.59707576 0.80014211 0.077152349
18.229759 19.527431 5.121717 0.032353714 0.53989518 0.84112769 0.093500637
14.267668 19.772331 5.0623331 0.081872217 0.61549419 0.78388071 0.075162135
16.147392 19.612764 5.08956 0.040924486 0.58295804 0.81155175 0.082328856
14.955629 19.517099 5.2369862 0.060338382 0.60286611 0.79556692 0.074492529
15.999623 19.541462 5.1487045 0.050827485 0.58830601 0.80709779 0.08053036
18.6943 19.671947 5.0415845 0.027237026 0.53552419 0.84410214 0.097551085
19.796482 19.478518 5.1336918 0.063617751 0.47918043 0.87545115 0.10532551
20.603868 19.461779 5.0909986 0.085757755 0.4451142 0.89139533 0.11300133
20.918774 19.321117 5.1268163 0.092741191 0.42770308 0.89916366 0.11637586
22.538885 19.245049 4.9775825 0.11042517 0.39058518 0.91396761 0.12143735
21.444435 19.137224 5.1461043 0.10172024 0.39750591 0.9119544 0.11729591
21.784513 19.231035 5.0752082 0.10928381 0.39867827 0.91057771 0.12029221
14.322156 19.309488 5.3962307 0.078331746 0.58161455 0.80968875 0.074228846
13.968324 19.45842 5.3048992 0.079079889 0.5897842 0.80368233 0.075063832
14.928244 19.272852 5.4061437 0.066369481 0.57840884 0.81306982 0.075374059
15.337448 19.379745 5.2995825 0.057090886 0.5858888 0.80840266 0.076207422
15.397185 19.171251 5.416224 0.060836378 0.56871963 0.82030332 0.074585043
14.857568 19.023354 5.5456591 0.069734983 0.55795676 0.82695198 0.07413502
13.809814 19.195063 5.4916606 0.075068802 0.56641734 0.82069796 0.074982382
15.896352 19.333715 5.3019209 0.051204298 0.57459205 0.81686187 0.080262922
15.95935 19.13199 5.4188471 0.04826998 0.55370992 0.83133435 0.079777665
16.319635 19.295507 5.315783 0.045223944 0.56661141 0.8227793 0.082703523
16.892096 19.06638 5.418047 0.033277757 0.53360039 0.84514362 0.088066347
17.83386 19.243694 5.2812538 0.032183144 0.52487141 0.85059434 0.092228957
16.967594 19.310036 5.261868 0.028714249 0.54929787 0.83518428 0.089260794
17.239882 19.291307 5.2520294 0.032121755 0.54438335 0.8382473 0.089585714
19.698011 19.042053 5.3362622 0.074745469 0.44853154 0.89066124 0.10261024
21.786957 19.050764 5.1196394 0.10696879 0.38781828 0.9155159 0.11692179
20.378714 19.119204 5.2333255 0.075428881 0.42094901 0.90396613 0.11456888
20.246944 18.965416 5.277225 0.071166307 0.41606632 0.90654999 0.11086547
18.859827 19.030806 5.3412261 0.051249836 0.47510317 0.87843817 0.10088138
18.422445 19.267662 5.2636862 0.044825509 0.51361829 0.85686952 0.096996255
18.879133 19.299608 5.23142 0.047848161 0.49093437 0.86990148 0.099947505
21.256409 19.16082 5.1133423 0.10063205 0.4020524 0.91007471 0.11697412
19.363726 19.206964 5.2525048 0.047097415 0.47020566 0.88130158 0.10218557
20.859091 19.176493 5.1548414 0.081088714 0.41031173 0.90833491 0.11680061
18.134069 19.101097 5.337924 0.03177226 0.50515646 0.86245722 0.093810841
22.389284 19.011358 5.0260477 0.097046696 0.37835339 0.92056745 0.12170706
21.778698 18.993891 5.0951195 0.10389632 0.37736166 0.92022455 0.11884751
23.204193 19.681326 4.5611076 0.15595014 0.43072164 0.88899446 0.12267878
27.167154 19.468569 3.8452406 0.35132051 0.4944438 0.80194926 0.14596233
26.369646 19.328434 4.2304802 0.30837625 0.44994608 0.84045601 0.14717402
23.485041 19.427313 4.8026786 0.15822254 0.38956782 0.90736121 0.13093686
29.874384 18.24411 2.43589 0.57757151 0.52499354 0.62695366 0.14421757
27.955107 19.016251 3.6483326 0.40297845 0.48821831 0.78049284 0.14908797
30.035872 18.348557 2.1313038 0.5923875 0.5633083 0.579283 0.13955897
30.33007 18.213034 1.9958097 0.61616844 0.57033873 0.54620004 0.1361234
28.213171 19.19689 3.3392019 0.43280682 0.54046583 0.73016149 0.14938046
26.717314 19.309759 4.0551906 0.3342495 0.47929275 0.81474757 0.14744267
27.105818 19.337719 3.8367965 0.35717416 0.50683421 0.78840363 0.14455757
29.271778 18.741613 2.5711644 0.52483982 0.55703896 0.64380723 0.13771194
27.319187 18.991823 3.9326894 0.374704 0.45909455 0.80840796 0.14642668
27.495785 19.143806 3.7428811 0.386457 0.49989733 0.77917951 0.14938666
27.082434 19.10433 3.9716246 0.34810358 0.4778434 0.80904514 0.14821671
27.779705 18.847881 3.7400651 0.40030679 0.4719485 0.78748882 0.14432016
24.610382 19.411648 4.6052175 0.18805593 0.43576303 0.88044268 0.13585612
26.50882 19.06727 4.2805262 0.31085929 0.42529604 0.85199738 0.1472744
23.485825 19.275921 4.901967 0.15758395 0.39039853 0.90712506 0.13367309
30.154684 17.949883 2.5449421 0.61642683 0.50982016 0.60188901 0.12744232
28.497328 18.697598 3.3571031 0.47197282 0.50784582 0.72130966 0.14182028
28.220598 18.845884 3.4620159 0.44650233 0.51148736 0.73546594 0.14164536
29.679586 18.100079 2.872025 0.57815492 0.48568499 0.65583462 0.13956323
28.288656 18.839632 3.3405664 0.46436596 0.5487898 0.69548649 0.13429011
28.964592 18.7764 2.9272869 0.50790334 0.53353429 0.67740768 0.14341465
28.943066 18.560236 3.1200631 0.51403821 0.50578523 0.69356763 0.13996339
29.118298 18.541391 2.9322336 0.52131712 0.52909768 0.6697076 0.14011769
23.208584 19.174192 4.9705477 0.14100476 0.38153931 0.91357541 0.13040017
26.845497 18.847111 4.1950336 0.33155793 0.4164325 0.84829581 0.14425611
29.540287 18.106976 3.090286 0.58359933 0.50541925 0.63565177 0.12471697
26.33215 18.839521 4.4133592 0.28776202 0.3826521 0.87876612 0.14741683
24.015898 19.195198 4.8096566 0.1671043 0.4069922 0.89808571 0.13362193
24.388893 19.045858 4.8150506 0.16813616 0.38826472 0.90613884 0.13798675
27.055086 18.756632 4.1002564 0.3549422 0.42841578 0.8316195 0.14146651
26.012093 19.201059 4.3162622 0.28723261 0.44340557 0.85042959 0.14472589
28.67939 18.411833 3.4556575 0.49188808 0.49880084 0.71371996 0.13096543
28.063288 18.66754 3.6204154 0.44005582 0.50655949 0.74166399 0.13529344
27.881176 18.55106 3.8388102 0.43610105 0.48672992 0.75712019 0.125661
28.469509 18.4471 3.6345496 0.45920745 0.50257784 0.73255044 0.12493947
23.459461 18.940334 4.9789333 0.14421006 0.36503756 0.91979563 0.13195236
26.302734 18.67054 4.4374571 0.2871418 0.36876458 0.88436955 0.14385664
26.556187 18.578396 4.3730044 0.30661762 0.37044132 0.87705785 0.14131708
27.198524 18.398026 4.2413568 0.35730323 0.37193751 0.85712004 0.13018158
24.288769 18.882467 4.8726063 0.15908939 0.36444479 0.91755944 0.13742761
27.628607 18.427811 4.0461411 0.39077491 0.43466625 0.81177479 0.13010861
23.737288 18.812403 4.9482012 0.13366887 0.353598 0.92580593 0.12973134
24.276287 18.723286 4.9106727 0.1569099 0.34797677 0.92427993 0.13781692
23.914112 19.043907 4.867825 0.16157664 0.38336256 0.90939885 0.13351157
28.281111 18.399746 3.74016 0.45380825 0.4780944 0.75206292 0.12787102
25.746138 18.858366 4.5254889 0.27275512 0.37166169 0.88768929 0.14310101
22.817245 19.124537 4.9537411 0.11653693 0.39285156 0.91221714 0.12600967
24.693933 18.852974 4.7568049 0.20372662 0.38399619 0.90060127 0.1392992
26.888712 18.749954 4.2016134 0.34666485 0.44868833 0.82406843 0.12927939
25.415636 18.983007 4.5351834 0.26012415 0.40393659 0.87743139 0.14641725
-14.998185 19.371611 2.406985 0.53363788 -0.065740556 0.91908228 0.10428078
-14.58412 19.432201 2.1401362 0.61932224 -0.09234792 0.83088452 0.09521655
12.254148 20.82502 4.4207435 0.097584218 0.67233574 0.73408204 0.081682071
-2.351018 20.517466 4.5032754 -0.061958756 0.55301118 0.83087963 0.1067109
0.42853236 20.56493 4.6187043 -0.11018988 0.57166463 0.8131361 0.093308002
-15.671613 19.43434 2.6212003 0.33760834 -0.042792633 1.051873 0.10408478
21.690939 20.271349 4.5077653 0.12709962 0.47522515 0.8707332 0.11362159
25.341475 20.12306 4.0009642 0.24898712 0.53467101 0.81074661 0.13704988
27.943403 19.533766 3.0325799 0.42460966 0.6150648 0.66975904 0.1393238
13.560084 20.450895 4.6230221 0.075977452 0.65817004 0.74912488 0.082259066
-5.6886325 20.657099 4.5798502 -0.28039065 -0.68911189 -0.66839033 0.13822715
20.832355 20.037054 4.7784863 0.071508288 0.47056615 0.87951565 0.1136729
24.210384 19.980486 4.3909979 0.1945783 0.48627928 0.8526094 0.13051939
21.399651 20.239048 4.6244001 0.11447823 0.48512182 0.86704761 0.11716745
24.998774 19.888647 4.2521558 0.22027217 0.49946111 0.83981544 0.13741453
29.193575 18.746799 2.4650857 -0.52116412 -0.59579009 -0.61342239 0.13233942
27.6453 19.373562 3.2730396 0.40561777 0.5992797 0.69159973 0.13601714
-5.6135149 20.474373 4.7819128 -0.30907848 -0.70306957 -0.64064687 0.13929583
0.92636764 20.111341 5.0359368 -0.10988617 0.57436138 0.81122708 0.092674471
4.6895585 20.331013 5.2779469 -0.032272212 0.60645795 0.79451984 0.077732071
0.24223652 20.17289 4.8970323 -0.091535568 0.58507103 0.80584151 0.091737807
5.0535398 20.455458 5.1760716 -0.023863731 0.61209303 0.79050684 0.075298712
-3.3179314 20.112066 4.7706833 0.023455324 0.58928448 0.80758798 0.11916853
18.301762 20.045359 4.8135014 0.016420094 0.5575518 0.83005863 0.095784113
22.928425 19.750685 4.7338076 0.13452868 0.44400448 0.88613254 0.13037686
25.391182 19.645607 4.2436256 0.2547617 0.50749463 0.82410264 0.14197725
28.967649 18.616863 2.9639888 0.51876301 0.59310985 0.61577016 0.12421536
18.76507 20.038927 4.8197608 0.015192259 0.54562515 0.83791423 0.10043722
27.316328 19.237476 3.5673277 0.3880116 0.56806344 0.72647953 0.13383257
23.953617 19.668213 4.5979757 0.18522343 0.4588179 0.86933911 0.131134
26.381285 19.413546 3.9893484 0.31471086 0.51904881 0.79604012 0.14203666
25.88899 19.413195 4.1844535 0.28791061 0.4950459 0.82083905 0.14548504
-5.5856662 20.318062 5.0111904 -0.35193473 -0.71925038 -0.59923911 0.14003189
0.73774177 20.013639 5.0650282 -0.097470693 0.57311505 0.81369233 0.09355668
16.147209 19.867208 4.8937674 0.039390773 0.59980625 0.79927391 0.082113706
16.002665 19.813211 4.9478974 0.04487139 0.59835547 0.80003709 0.083027191
27.199455 19.066278 3.807559 0.38332239 0.53697139 0.75180161 0.12916164
20.822247 19.724833 4.9425287 0.071426131 0.44967383 0.8903541 0.11848078
19.881874 19.785717 4.9628892 0.041344471 0.47932082 0.87669247 0.11195584
-2.2348423 19.865423 4.9487519 -0.023198532 0.57981282 0.81443065 0.11160038
23.354944 19.59643 4.710732 0.14156176 0.44919696 0.88230723 0.12976079
-2.7309413 19.847086 4.9486609 -0.0078080054 0.59265107 0.80543178 0.1156107
9.2095423 20.209488 5.253459 0.034514979 0.62342989 0.78112817 0.071247339
-15.387898 19.455692 2.5879178 0.45243007 -0.061641902 0.97875428 0.10618201
-5.8659949 20.721949 4.6304526 -0.3221496 -0.7002793 -0.6374113 0.13999565
-1.9581256 20.401014 4.5991464 -0.057903487 0.55591094 0.82922959 0.10439976
3.3368068 20.66923 4.9815731 -0.083065525 0.59973645 0.79591388 0.083639532
-2.2949202 20.150785 4.7646732 -0.047728386 0.57405961 0.81745213 0.10691299
8.864152 20.458883 5.0731597 0.038861509 0.63777947 0.76926261 0.070638381
-7.1258364 21.125774 4.8456826 -0.64701426 -0.71947879 -0.25300261 0.12516962
-1.330865 20.058956 4.8536325 -0.057206839 0.57115525 0.81888026 0.10142123
-3.5103352 20.400063 4.5887432 0.016427113 0.56470317 0.82514769 0.11759444
-3.5395787 20.352983 4.6180191 0.029151717 0.58218831 0.81254709 0.12129843
0.040634334 20.010408 4.9722948 -0.09094546 0.58478814 0.80608463 0.092851721
0.71339095 20.446606 4.7695484 -0.10356333 0.56871015 0.81606829 0.093675122
2.4516904 20.239304 5.1475897 -0.092839792 0.58623248 0.80480772 0.083525471
-2.7904513 20.13776 4.7520132 -0.0054504811 0.59149778 0.80629247 0.11376871
10.522035 20.518578 4.9803209 0.060515765 0.64595741 0.76102769 0.079918683
11.341088 20.262609 5.1108222 0.084047489 0.61943519 0.78055781 0.078431584
15.371572 19.975414 4.8385782 0.041695043 0.6163097 0.78642672 0.079613909
18.906321 19.899822 4.8935361 0.0094641568 0.52700925 0.84981388 0.10435887
21.482857 19.972618 4.7656221 0.090979233 0.46407098 0.8811962 0.11974905
19.278938 19.925306 4.9013677 0.025218502 0.51630187 0.85604244 0.10797471
20.361446 19.833458 4.9190555 0.054991543 0.47262192 0.87957013 0.11533684
17.273241 20.146803 4.6687036 0.0084192371 0.59419948 0.80436808 0.088959284
19.33955 20.173164 4.7537546 0.014841615 0.53595161 0.84413588 0.10743116
21.829649 20.104374 4.6574006 0.092850097 0.47803879 0.87355989 0.12361114
20.46426 20.111849 4.7836132 0.052184079 0.48898539 0.87075007 0.11568511
19.997404 20.123432 4.7909346 0.027454721 0.50164527 0.864658 0.11421873
26.147442 20.085463 3.7382488 0.30879426 0.56592822 0.7706219 0.14234607
23.199121 20.132776 4.4839425 0.14526924 0.48217002 0.86447442 0.13018447
24.431105 20.18347 4.232368 0.19729793 0.50558752 0.84137595 0.13131195
28.184946 19.514427 2.7011566 0.45979795 0.63883239 0.61746526 0.13109297
23.557875 20.383148 4.2365499 0.15379041 0.49504822 0.85606849 0.12823738
27.499926 19.504776 3.273659 0.40359861 0.59984505 0.69318146 0.13625294
27.569336 19.287897 3.3831983 0.40842307 0.59504634 0.69281876 0.12854372
24.874382 19.859484 4.22122 0.22186735 0.52314812 0.82370096 0.134817
26.034733 19.656551 3.9415057 0.3040095 0.55189031 0.77784455 0.14119801
23.512402 19.854534 4.5561147 0.16291785 0.4837811 0.86016303 0.12918054
24.391172 19.811892 4.401628 0.19360782 0.49914321 0.8452816 0.13409868
22.921516 19.711266 4.707716 0.13510512 0.45207292 0.88183302 0.12645946
24.335039 19.595171 4.4979854 0.18573369 0.48334643 0.85571301 0.13277413
23.766146 19.665358 4.5820389 0.16772307 0.47586131 0.86348933 0.12988161
24.932203 19.615696 4.3068619 0.22944392 0.51565689 0.82591188 0.13706477
-1.6584504 19.846798 4.970377 -0.045905598 0.57414258 0.81751066 0.1047345
-4.2094846 19.907557 4.9480629 0.16625576 0.65524137 0.73692387 0.13512388
1.0659009 19.806391 5.2724957 -0.098868564 0.57446939 0.81254548 0.094222717
-2.1595979 19.687716 5.0203543 -0.012868199 0.59083521 0.80669206 0.1124634
1.2124641 19.816593 5.2565026 -0.096863866 0.57477474 0.81256258 0.091513515
-3.16259 19.631969 5.0514874 0.069422454 0.62696511 0.77595848 0.12685214
-1.2143902 19.638409 5.1022763 -0.04133828 0.58072704 0.8130672 0.1024422
-1.5174557 19.620605 5.0878754 -0.035352226 0.58267224 0.81194985 0.1045426
-4.154449 19.727133 5.0850739 0.19210421 0.65757525 0.72851551 0.13533175
2.2862375 19.731979 5.4548359 -0.092922665 0.5692721 0.81688285 0.086379863
-0.36034179 19.588009 5.2041373 -0.06647101 0.5870508 0.80683362 0.096570008
-5.4963593 19.907579 5.6016583 -0.44794732 -0.73824626 -0.50471085 0.15020362
-3.6624172 19.484741 5.164228 0.16036052 0.65108275 0.74187475 0.12971325
-2.6407008 19.38821 5.1744108 0.048623513 0.61655957 0.78580809 0.12373982
-2.1607115 19.391788 5.1836424 0.013380637 0.60313737 0.79753715 0.11603038
1.9034007 19.614071 5.468503 -0.082548983 0.57023799 0.81732845 0.0878902
-4.5709329 19.566433 5.3892231 -0.31057176 -0.68525368 -0.65888965 0.14661933
6.3949285 19.923088 5.5238109 0.0082146861 0.60738879 0.79436958 0.069697112
8.8055639 20.074411 5.3783512 0.024697321 0.61346132 0.78934032 0.07159175
9.3567085 19.658842 5.6039038 0.032826774 0.58460629 0.81069374 0.071078487
3.6430874 19.890631 5.4826531 -0.065175787 0.57974452 0.8121962 0.076238215
4.885366 19.738375 5.6156511 -0.030224483 0.5832994 0.81169957 0.071842141
8.8319254 19.698711 5.5902967 0.028301472 0.58958238 0.80721998 0.068741143
10.435925 19.903864 5.4432349 0.053288665 0.59545457 0.8016293 0.076619089
10.815596 19.625771 5.5678148 0.070416406 0.56627816 0.82121342 0.07443279
10.43724 19.662949 5.5767827 0.053695455 0.57404059 0.81707966 0.073322117
12.049335 20.053833 5.1724582 0.097124234 0.61167467 0.78512597 0.077131443
11.840329 19.825693 5.3479557 0.096714996 0.59551698 0.79750556 0.077101991
11.86098 19.593813 5.4768405 0.09376926 0.57611609 0.81198442 0.075500987
18.257896 19.688837 5.0144792 0.025532559 0.53850335 0.84227651 0.09704569
21.524904 19.62355 4.9045396 0.097141847 0.43427521 0.89554626 0.11729863
28.639101 18.525576 3.4276838 0.48155695 0.57072121 0.66517901 0.11659181
17.256456 19.818529 4.8938375 0.015540881 0.58299834 0.81235224 0.090806879
18.013466 19.835398 4.9152498 0.013517732 0.55823362 0.8296026 0.095142186
14.074727 19.821152 5.0448718 0.084536456 0.61918765 0.78068012 0.077167019
26.189434 19.159521 4.2326307 0.30316964 0.45623922 0.83760595 0.14504591
12.870674 19.982819 5.1060815 0.09188921 0.61256552 0.78511542 0.080169857
26.828766 18.989855 4.0679941 0.34771791 0.47606626 0.80841249 0.135149
25.186081 19.300161 4.4576087 0.23819394 0.45200515 0.86005723 0.14259802
15.810289 19.699533 5.0115447 0.040735811 0.59701717 0.80121368 0.081605881
17.767109 19.490059 5.1220517 0.022519942 0.54042643 0.84110957 0.092489444
17.348949 19.636055 5.0115194 0.013343401 0.56094867 0.82777995 0.091072075
19.885658 19.543051 5.0520606 0.045217674 0.46103188 0.88624245 0.10889675
18.384583 19.594418 5.0511656 0.023419427 0.52033925 0.85366309 0.10040236
23.819334 19.378412 4.717031 0.15379523 0.43929508 0.88512623 0.1298613
21.484928 19.468449 4.9443579 0.08416751 0.41855675 0.90429062 0.11731545
23.241056 19.439131 4.7616715 0.14048479 0.43491802 0.88951021 0.12542659
24.787148 19.297665 4.5274634 0.20821066 0.45983139 0.86335897 0.13675542
22.916533 19.44171 4.7851143 0.12901942 0.43120918 0.8930431 0.1239405
20.351225 19.510149 5.0399966 0.061406508 0.4558517 0.88794237 0.11553851
16.303047 19.624004 5.0470958 0.03244748 0.57684696 0.81628776 0.08778099
12.317614 19.744682 5.3416381 0.09459275 0.59289986 0.79970282 0.076075897
20.815273 19.504742 4.9857597 0.072270133 0.43850952 0.89581853 0.11662154
13.39591 19.659647 5.2249017 0.081609719 0.59940046 0.79629636 0.076059662
28.029297 18.55632 3.8162138 0.42435506 0.54360306 0.72428715 0.11241654
25.393044 19.073776 4.4938421 0.25283942 0.45327038 0.85497957 0.13831514
24.589689 19.134315 4.6625061 0.18938172 0.42994973 0.88283819 0.13343778
13.798614 19.463762 5.2970076 0.082657345 0.58674473 0.80554307 0.074774638
21.666115 19.363596 4.9396482 0.090267576 0.40713805 0.90890431 0.11645787
12.752154 19.56078 5.3788548 0.084161274 0.58325535 0.80794793 0.077771291
14.418049 19.429237 5.2475471 0.073966689 0.59240299 0.80224675 0.077497229
13.345894 19.519556 5.3173504 0.08002162 0.58864301 0.80443841 0.07592158
16.249289 19.418621 5.1716623 0.030789908 0.56673253 0.82338083 0.086545721
17.339573 19.32337 5.1929107 0.022328574 0.53793103 0.84272397 0.092903852
18.774113 19.375998 5.1360421 0.02965818 0.49476343 0.86853081 0.10303794
20.378191 19.350746 5.0686636 0.052327681 0.43223867 0.90024072 0.11443482
3.4794362 20.166922 5.3040709 -0.067947604 0.58825243 0.80583984 0.076027445
-0.5571152 19.900265 4.9894853 -0.059960153 0.58153087 0.81133813 0.096436299
-4.8018069 20.07044 4.9953985 0.24468277 0.67274463 0.69837224 0.13832575
-4.4286442 19.808695 5.0982633 0.21079005 0.66851586 0.71327966 0.14101659
-6.6377382 20.743036 5.3277025 -0.59243637 -0.74156588 -0.31603143 0.13401721
-2.5905259 19.670099 5.0120192 0.019255167 0.60648125 0.79487723 0.11886035
2.7176867 19.913153 5.3886232 -0.081449836 0.58500034 0.80693823 0.082561426
5.2952704 19.975098 5.4851313 -0.015179188 0.59697926 0.80212259 0.071186572
-3.6833394 19.660168 5.0518804 0.14212281 0.6482206 0.74807525 0.12984228
-0.1425667 19.538452 5.2429042 -0.073978424 0.59096462 0.80330557 0.097195581
5.2985744 19.757267 5.6137581 -0.011811184 0.58698165 0.80952209 0.06996993
-1.6208571 19.481548 5.1467032 -0.022346927 0.58824289 0.80837816 0.10573409
0.93699265 19.781408 5.215785 -0.093155608 0.57118762 0.81553149 0.092762776
-5.9488864 20.269918 5.5220284 -0.48913136 -0.7508772 -0.44502109 0.14718251
14.337687 19.969002 4.8844762 0.075863533 0.632967 0.77045685 0.076486684
14.406361 19.689207 5.0803108 0.084546663 0.60878909 0.78883421 0.076125279
9.8501987 19.930017 5.4289899 0.045518618 0.60167861 0.79746181 0.074112721
11.399518 19.904217 5.3437209 0.076277897 0.5985117 0.79748148 0.078311287
9.2575617 19.965502 5.4143677 0.030377842 0.60455626 0.79598659 0.071500503
17.039654 19.816378 4.8994927 0.011933893 0.58878982 0.80822223 0.089036368
15.404305 19.72986 5.0211649 0.042914331 0.59897941 0.79962885 0.079021864
25.581869 19.27223 4.3159404 0.26418841 0.47838336 0.83785063 0.14227198
8.9163609 19.913429 5.4660921 0.03394568 0.6025753 0.79735136 0.070705645
11.359065 19.668825 5.4887676 0.070410036 0.57690603 0.813779 0.075041145
14.814847 19.456657 5.1963735 0.059196126 0.59122145 0.80433804 0.078582421
6.654851 19.965595 5.4671807 0.013353773 0.60934412 0.79279947 0.067828931
16.862907 19.620039 5.0074916 0.022863591 0.57107729 0.82062477 0.089353211
22.790834 19.342707 4.8146882 0.13069274 0.41941935 0.89842302 0.12453361
6.5385461 20.22188 5.2924247 0.014455902 0.62018996 0.78436732 0.068028159
2.538069 20.133553 5.2351933 -0.092596993 0.5866347 0.80454201 0.083597399
14.8846 19.984869 4.82407 0.061145917 0.62414473 0.77892411 0.074463166
22.126705 19.725044 4.7814813 0.094168834 0.44170833 0.89225614 0.11904846
27.656559 18.882198 3.6880374 0.39917767 0.59815735 0.69490433 0.10937162
19.255587 19.719624 4.9674811 0.016237758 0.49510404 0.86869037 0.10358565
22.547178 19.617172 4.7633414 0.11710842 0.43325305 0.89370894 0.12214056
7.7799168 20.060484 5.3660359 0.02993435 0.61568505 0.78742713 0.066742256
14.890345 19.820541 4.9435849 0.061585762 0.61431617 0.78666562 0.077007093
1.7252222 19.879511 5.2864695 -0.096292324 0.58052695 0.80853021 0.089035012
18.944088 19.635752 5.0124149 0.030137666 0.50474495 0.86275345 0.10336772
13.820753 19.736975 5.1128411 0.081023924 0.60601342 0.79131913 0.076302245
20.780895 19.411392 5.0048308 0.072857738 0.43485594 0.89754814 0.11429287
12.828538 19.870899 5.1627054 0.091281533 0.60167783 0.79354048 0.078233503
-0.71417755 19.714655 5.0713711 -0.049349379 0.58958757 0.80620986 0.099517815
4.0424137 20.040182 5.4032316 -0.045937292 0.59254348 0.80423701 0.075101905
5.8371568 20.085524 5.3859577 -0.00054745242 0.61112392 0.79154629 0.06928353
-5.7341208 20.239311 5.3666811 -0.43690455 -0.73215407 -0.52303922 0.15167633
5.7533174 19.890982 5.5206785 -0.0040780674 0.59723932 0.80205965 0.068962045
-5.5151219 20.111612 5.3353548 -0.40016094 -0.72930789 -0.55527711 0.14792641
10.851192 19.953865 5.3497915 0.072730646 0.59278136 0.80207956 0.07572829
21.720472 19.61195 4.8509421 0.094353124 0.43397468 0.89598995 0.11711459
23.063749 19.376572 4.7733307 0.13252968 0.42887315 0.89367276 0.12415556
18.695976 20.699915 4.3587856 0.011256004 0.57874954 0.81557846 0.096610628
20.237158 20.412603 4.6113548 0.039862633 0.51375049 0.85703903 0.11545677
-3.2901082 20.721262 4.3377628 -0.040122595 0.55010927 0.834167 0.11168539
-15.386144 19.835938 2.6317155 0.47334316 -0.10587446 0.97719443 0.12130251
2.3112845 20.841869 4.7225046 -0.095946684 0.59065884 0.80129176 0.087736927
7.8706756 20.953819 4.6522746 0.028151186 0.66567993 0.74581158 0.069574773
14.579534 20.643415 4.3263941 0.054487776 0.66167539 0.74784321 0.07620997
17.277977 20.667452 4.3033175 -0.00074039167 0.61593825 0.78789616 0.085341327
20.4643 20.972275 4.2128997 0.030005982 0.55784243 0.82946694 0.1143416
22.462019 20.76836 4.1260924 0.12505415 0.53006065 0.83906698 0.1201103
25.32271 20.464808 3.668787 0.27038926 0.59271085 0.76254809 0.12821954
29.316301 18.808887 2.0952113 -0.55481547 -0.63366014 -0.5512886 0.12143578
29.379519 18.758463 2.1283 -0.55683613 -0.62511283 -0.55599159 0.1277073
21.961044 20.672638 4.2810202 0.11031556 0.51201111 0.85210282 0.11813392
25.410301 20.305721 3.7654653 0.27445889 0.58043677 0.76977628 0.13282637
26.42362 20.260988 3.2261641 0.33801761 0.64429367 0.69058657 0.12741101
28.155533 19.545691 2.5183423 -0.45787242 -0.66377473 -0.59228122 0.11746154
28.369709 19.433453 2.4402645 -0.47975367 -0.65771931 -0.58166122 0.11471456
21.876209 20.247683 4.5788779 0.10135569 0.47980452 0.87174875 0.12356818
23.230028 20.370478 4.3302994 0.15897547 0.51685965 0.8419345 0.13039494
25.530342 20.076942 3.8751633 0.27145973 0.57716274 0.77255577 0.1346011
26.262352 19.838697 3.7227521 0.31573537 0.58400869 0.75020081 0.13735266
27.811388 19.447174 2.9566891 -0.43196338 -0.64516014 -0.63026559 0.1213716
22.256569 20.478029 4.3599801 0.11470532 0.50825799 0.85387504 0.11879253
25.039206 20.333403 3.8405762 0.25065854 0.58224821 0.77544504 0.12721182
25.44124 20.257477 3.7073519 0.28711495 0.59884262 0.74947894 0.1308268
27.37158 19.695702 3.052423 0.41039056 0.65182132 0.63821739 0.10860135
21.817627 20.404516 4.4946404 0.096140459 0.49803907 0.86207128 0.12211388
24.245426 20.273689 4.1690412 0.20104189 0.54067045 0.81820571 0.13063826
26.09819 19.93376 3.6497493 0.31501701 0.60584962 0.73174322 0.13064617
17.461855 21.103434 3.9563055 -0.0015972111 0.63466012 0.77296311 0.086090878
-15.425194 20.064907 2.7172303 0.48928365 -0.10054135 0.96670604 0.13495599
26.866095 20.185543 2.9499142 0.36540267 0.67105997 0.64711326 0.11352368
26.823698 20.035465 3.1159582 0.36338711 0.66149068 0.6576975 0.11547508
-4.0801706 21.003651 4.1855431 0.0080935005 0.57001787 0.82159287 0.11981973
17.832413 20.842749 4.208231 -0.0076979371 0.61089742 0.79177916 0.092523731
20.893679 20.693018 4.4217129 0.061705444 0.54041797 0.83920795 0.11830977
28.189301 19.279276 2.7818003 -0.44861132 -0.6664272 -0.59606355 0.10609974
27.766808 19.451368 2.9352157 -0.42311627 -0.67794496 -0.60124749 0.10562588
1.4432228 20.855082 4.5724297 -0.10016618 0.58516586 0.80477524 0.088805653
-5.9611459 20.955366 4.455018 0.27449679 0.69461375 0.66533107 0.14174347
23.343842 20.4842 4.193944 0.1630609 0.55364394 0.81779647 0.12616797
15.137023 20.737728 4.2077985 0.038574211 0.66153014 0.74895817 0.077628054
24.414778 20.407034 3.9712272 0.22361016 0.57664943 0.78690153 0.12796941
15.061758 20.725098 4.2188148 0.04104954 0.66132772 0.74900323 0.076663509
9.3296452 21.360767 4.2141018 0.061830845 0.69498408 0.71686667 0.070889153
-8.1401339 22.038805 4.1278214 -0.41142017 -0.78561515 -0.46533459 0.16050939
-5.4940453 21.13007 4.1797299 0.16536602 0.6456688 0.74563533 0.13165917
23.755291 20.904978 3.80635 0.17634319 0.59087098 0.78896296 0.1257547
24.652874 20.684452 3.7065892 0.24486604 0.60039818 0.7637068 0.12673013
18.60524 21.047621 4.1110082 -0.018613882 0.59809679 0.80143344 0.10007542
-5.1386003 20.8986 4.3764729 0.14901651 0.62956989 0.76262385 0.13591503
-2.137162 20.883497 4.2580471 -0.042751823 0.56496125 0.8240155 0.1036821
-0.72902006 20.918478 4.2616787 -0.063148022 0.57784557 0.81370389 0.092805706
14.102126 20.915802 4.0867238 0.069719672 0.67933333 0.73058832 0.074474424
18.24851 20.925514 4.203927 -0.0085467137 0.6074506 0.79453236 0.09762381
26.488453 20.10482 3.2482529 0.34266093 0.65433484 0.67527837 0.1129754
13.138584 20.924915 4.2361035 0.10477794 0.68316281 0.72288334 0.083748043
17.43409 20.984426 4.064095 -0.020616535 0.63507074 0.77232599 0.089710362
1.1999981 20.556046 4.7644157 -0.10519936 0.58168352 0.80662233 0.092211172
-1.8248098 20.277634 4.6923757 -0.049787741 0.58225399 0.81149989 0.106213
-1.1112113 20.537189 4.5109282 -0.050481435 0.57941759 0.81348407 0.098492272
-4.542356 20.538349 4.5383282 0.11926915 0.62171185 0.77414048 0.13272293
-1.8684466 20.497967 4.5081806 -0.044285271 0.57815319 0.81474811 0.10409778
-0.6788792 20.505976 4.5436196 -0.060230792 0.57913864 0.81300503 0.09496814
9.3563938 20.849783 4.7104592 0.040152904 0.67338043 0.73841131 0.073088117
-7.6770792 21.749434 4.4204278 -0.55540651 -0.74190915 -0.37690973 0.14365111
3.793087 21.068151 4.6453762 -0.037153155 0.62384033 0.78068572 0.077190034
-7.2188554 21.50646 4.4698882 -0.51806933 -0.74123579 -0.42704496 0.1327271
-4.1836166 20.687971 4.4003177 0.058558535 0.59425575 0.80216509 0.125083
-5.807858 21.01226 4.4334574 0.24457452 0.67765546 0.69378805 0.14837572
-6.5188084 21.230452 4.5223503 -0.36924407 -0.72941071 -0.57618135 0.14845918
-2.5462127 20.533323 4.4682622 -0.025168465 0.58280534 0.81223357 0.10866831
-7.0506053 21.212906 4.8517237 -0.57896012 -0.73125124 -0.36113125 0.13244647
-4.1410666 20.231289 4.6900177 0.12948464 0.62629968 0.76876521 0.13089918
7.8338699 20.586092 4.979003 0.025581216 0.6408807 0.76729208 0.069460221
1.6075784 20.358438 4.9442668 -0.092540376 0.57749802 0.81117022 0.087243319
-3.6834064 20.344301 4.5785155 0.067901775 0.59369117 0.80182785 0.12034184
-3.0874934 20.386999 4.5603075 0.014131646 0.58021331 0.81434304 0.11358191
1.6891298 20.580311 4.7821145 -0.090811104 0.58564317 0.80551195 0.087423638
-0.41784653 20.595463 4.4927011 -0.068427481 0.57906508 0.81240577 0.092248484
-6.3615074 21.072195 4.6204634 -0.36838749 -0.72215462 -0.58601689 0.15102571
-1.4522681 20.660984 4.3927679 -0.044526327 0.58186764 0.81207794 0.099549569
0.81395495 20.652706 4.5940514 -0.093339361 0.58262533 0.80738282 0.092363052
-2.2773137 20.511524 4.4858379 -0.03466377 0.57917655 0.81449074 0.10602347
-5.7647753 20.808847 4.6361141 -0.30113441 -0.69728923 -0.65094435 0.14862752
-1.6809905 20.326361 4.6013312 -0.037060589 0.58004534 0.81375408 0.10356665
-4.8699059 20.613756 4.58391 0.18368693 0.63361448 0.75157684 0.14270884
5.2896857 20.811224 4.8274865 -0.00093966513 0.63481396 0.77280146 0.071556002
6.3843822 20.801691 4.7944465 0.021153839 0.6475758 0.76180434 0.068378277
13.005282 20.5084 4.6619372 0.093502291 0.65141255 0.75307727 0.08049047
11.455723 20.63154 4.805203 0.084083512 0.65617579 0.74999022 0.08204338
18.769989 20.518753 4.5281005 -0.0067186323 0.56309026 0.82642561 0.10609733
20.758055 20.305805 4.6526151 0.068288118 0.50795466 0.85871035 0.11684781
20.596642 20.368773 4.6281567 0.059766673 0.51823652 0.85317153 0.1162558
11.992993 20.608351 4.7421269 0.098025806 0.64937788 0.75426477 0.079888694
14.953494 20.484373 4.4329896 0.049726225 0.65167034 0.75689453 0.07864704
19.762098 20.265892 4.7069421 0.018774386 0.52466285 0.85111529 0.11257189
11.787733 20.443567 4.8980856 0.0926577 0.64044553 0.76246536 0.079443641
21.997885 20.341637 4.4919267 0.10321689 0.4991563 0.86056614 0.12187313
25.242022 20.110285 3.8631582 0.2619496 0.5867216 0.76741916 0.13136135
24.818703 20.093063 4.0309424 0.22985883 0.56688839 0.7917102 0.12929447
22.203053 20.02351 4.6456499 0.097971998 0.47086582 0.87691873 0.12037183
23.290449 20.224476 4.3592896 0.16121441 0.5286687 0.83388317 0.12703601
24.782768 19.821573 4.1895394 0.22251873 0.54482967 0.80876678 0.13441461
25.81414 19.76479 3.8738308 0.30077338 0.57864922 0.75891703 0.13681097
25.913935 19.632254 3.9268394 0.29551622 0.5675894 0.76902455 0.13831964
25.267498 19.853346 3.9878473 0.25602165 0.58118641 0.77278143 0.13195847
27.095448 19.515091 3.3984392 0.38413128 0.63155657 0.67369914 0.11384764
27.552057 19.379021 3.1921332 -0.40406823 -0.65869254 -0.63471144 0.10390956
27.927256 19.137569 3.1705441 -0.42314199 -0.65770477 -0.62334484 0.10291193
14.47591 20.545763 4.3988128 0.05754032 0.66141772 0.74783021 0.077169448
16.256348 20.462498 4.3880696 0.025918745 0.63570839 0.77153808 0.082801871
17.181452 20.516272 4.391181 -0.012566805 0.61075568 0.79179394 0.086126894
16.886868 20.521803 4.3606877 -0.0022580486 0.61930215 0.78523475 0.083598487
18.004015 20.424538 4.4999161 -0.012928765 0.58579737 0.81040734 0.094385356
18.385929 20.527729 4.4878221 -0.015913621 0.58153611 0.81343299 0.10190223
21.271219 20.425243 4.5265503 0.07478524 0.51118481 0.85630447 0.12026741
26.614302 19.839857 3.3954515 0.34757105 0.64413357 0.681871 0.11406329
26.178711 19.826897 3.6060948 0.32813376 0.61821777 0.71451598 0.12718897
15.413797 20.523775 4.382659 0.029451141 0.64871669 0.76050037 0.080413289
15.890585 20.50441 4.3679833 0.025424944 0.63928628 0.76858091 0.081598409
13.732672 20.631638 4.3931546 0.085176341 0.67316711 0.7345944 0.079224899
23.053862 20.399147 4.2714996 0.15815768 0.5466764 0.82281214 0.12584324
13.452744 20.720097 4.3569746 0.10346887 0.6772396 0.72851092 0.081182264
24.384737 20.280876 4.0189905 0.22294657 0.57371992 0.78872496 0.12828197
27.784277 19.31724 3.065089 -0.42483515 -0.67728829 -0.60120821 0.096701883
11.25526 20.702374 4.7404242 0.07190486 0.66674262 0.74193454 0.080329143
26.565382 19.966417 3.2772877 0.357012 0.66353911 0.65758091 0.10770978
24.655701 20.371035 3.8624041 0.22752456 0.60112959 0.7669549 0.12392811
15.757019 20.69717 4.1941495 0.01553495 0.6558184 0.75479412 0.080559313
17.320274 20.750191 4.1979532 -0.02699925 0.62718529 0.77843261 0.085499585
22.837759 20.527775 4.1904683 0.15850024 0.5701375 0.80659097 0.12339242
20.420561 20.651327 4.4424262 0.039482582 0.55578125 0.83041698 0.11581309
-4.5245719 20.342577 4.6975341 0.16732202 0.64530486 0.74538279 0.13949247
-3.4530959 20.251047 4.6185842 0.067562096 0.60228086 0.79543048 0.12030722
-3.7388208 20.0509 4.7845249 0.092397414 0.61815798 0.78061008 0.12398405
-6.1250505 20.75296 4.9103351 -0.4081223 -0.73079294 -0.54792589 0.15211143
-5.7598457 20.574749 4.920393 -0.34639233 -0.71821207 -0.60387897 0.15233608
-5.0386901 20.377214 4.8433084 0.26169202 0.67119056 0.69361937 0.14562924
-6.0068436 20.518278 5.1714344 -0.41662511 -0.73439652 -0.53632146 0.15273149
-6.526701 20.831913 5.1993933 -0.49425766 -0.7406714 -0.45551845 0.15105186
-6.8277316 21.019209 5.2325959 -0.5086413 -0.74561977 -0.43168306 0.15399942
-4.6140637 20.139885 4.8760161 0.23274405 0.65845519 0.71575022 0.1429397
-5.5319929 20.330696 5.0878968 -0.35230556 -0.70466 -0.61644709 0.15266968
-7.5056105 21.467178 5.1298294 -0.68011141 -0.71297598 -0.17229515 0.12651478
-3.8536298 19.99078 4.8034081 0.15081125 0.62919539 0.76248676 0.13177925
-4.0862513 20.019735 4.8066206 0.16882193 0.64246148 0.7474941 0.13424665
-7.381216 21.370495 5.2319541 -0.61369127 -0.7426393 -0.26863667 0.132009
-5.5857201 20.460644 4.9777455 -0.32605416 -0.6978249 -0.6383788 0.15849344
-5.5810633 20.252913 5.2159276 -0.37259167 -0.72024906 -0.58573687 0.15806553
-6.6959925 20.770174 5.618403 -0.57882071 -0.73654562 -0.3511017 0.15090656
-5.7200661 20.273186 5.2726226 -0.40048209 -0.71734726 -0.57090211 0.15577193
-5.1960468 20.175835 5.0636621 -0.320178 -0.69217396 -0.64716482 0.15103108
-3.1914668 20.224569 4.6312313 0.023363596 0.59996325 0.79969078 0.11885572
-3.1678512 19.994833 4.7827516 0.042197376 0.61103022 0.79048699 0.12716466
-2.85462 20.155556 4.6838555 0.0035094982 0.59938812 0.80046254 0.11493914
-2.2777927 20.240313 4.6542044 -0.024034202 0.59318346 0.80472422 0.10863075
-1.3022814 20.064724 4.7923465 -0.041098151 0.58299816 0.81143457 0.099447981
-0.41050893 20.140745 4.8270965 -0.071716405 0.58216709 0.80991471 0.094899125
0.15319802 20.181503 4.8544126 -0.096187256 0.5868808 0.80395186 0.092185207
0.78360903 20.373075 4.7767348 -0.10084991 0.57817662 0.80967975 0.093139172
-0.60872954 20.266136 4.6648259 -0.053518273 0.58527827 0.80906904 0.095550053
-0.32496989 20.245874 4.7207451 -0.064396441 0.58852917 0.80591476 0.093169808
-2.1612804 19.95908 4.7983613 -0.0061259121 0.59221661 0.80575973 0.10935043
-1.599568 20.006048 4.7801437 -0.023046982 0.59093404 0.80639231 0.10305601
-2.6669257 19.932703 4.817915 0.017298009 0.60075378 0.79925597 0.11754429
-1.2403457 19.973482 4.8192921 -0.028546343 0.59320676 0.80454946 0.10084808
0.078881398 20.203375 4.7826271 -0.084331356 0.58605462 0.80587584 0.093999036
-0.65218669 19.998585 4.8448095 -0.046944041 0.58932626 0.80654395 0.09709812
-0.21163529 20.023268 4.8600111 -0.06709367 0.5880084 0.80607581 0.093407333
0.35543525 19.845737 5.0940247 -0.087787621 0.57983935 0.81000525 0.093894906
0.67394966 20.046413 4.9637647 -0.096931018 0.58152062 0.80774868 0.092245847
-2.5390382 19.724928 4.9235272 0.027768517 0.61123514 0.79100806 0.11952341
-1.6483579 19.795572 4.8847489 -0.014448233 0.59009683 0.80720836 0.10341062
-2.2819662 19.696705 4.9243169 0.023707749 0.6026243 0.79771346 0.11820394
-0.7262736 19.786392 4.9509063 -0.040435676 0.58973259 0.80661535 0.098294824
0.72661662 19.906683 5.0423226 -0.088813692 0.58074117 0.80924243 0.094125502
1.6752186 20.222462 5.0460672 -0.091531396 0.58127242 0.80858916 0.090707906
1.2059408 20.293385 4.9036503 -0.094471306 0.58044368 0.80882925 0.092586718
2.3378835 20.467125 4.9557519 -0.085646331 0.59046298 0.80252635 0.085939832
5.3020906 20.5938 5.0045681 -0.0016732846 0.63036007 0.77636451 0.07150808
2.6920607 20.458708 4.9988766 -0.073584937 0.59938008 0.79708302 0.082901664
3.2716348 20.579641 4.9448056 -0.061926991 0.60402101 0.79457504 0.077477731
2.4502454 20.480257 4.9240952 -0.072488807 0.5915162 0.80304819 0.083922885
1.2694114 20.133215 5.0028734 -0.085107371 0.57872134 0.81109631 0.091670543
2.7724524 20.271597 5.1149764 -0.069084667 0.59605497 0.79996914 0.08275865
4.8678498 20.580606 5.0074329 -0.017408784 0.62238067 0.78258264 0.071433693
5.8221073 20.30394 5.2216125 0.01053684 0.62045449 0.78421003 0.0701937
10.083774 20.543388 4.9618173 0.042513765 0.65017611 0.75863612 0.077310041
10.287146 20.604906 4.8935509 0.044035703 0.65472609 0.75464058 0.07836958
7.9441533 20.610464 4.9260941 0.029254196 0.64786714 0.76125485 0.067669988
6.4619861 20.609961 4.9366531 0.020650147 0.63899928 0.76899517 0.067037836
10.360562 20.273251 5.1800051 0.04615457 0.62407637 0.78001297 0.079068437
9.2321625 20.365026 5.114821 0.034370791 0.6343751 0.77227604 0.071472771
8.8002691 20.537931 4.9542508 0.026366942 0.64811468 0.76113981 0.069891512
6.2607813 20.342983 5.1623116 0.0044656256 0.62697619 0.77908105 0.070876651
10.79905 20.311037 5.0791407 0.063395932 0.63202602 0.77237064 0.077854827
10.407928 20.263252 5.1461005 0.046530262 0.62512726 0.77914548 0.075823903
9.3475647 20.098734 5.3000293 0.035027687 0.61619347 0.7868256 0.072669074
9.9197206 20.143024 5.2568455 0.0424762 0.61524206 0.78720969 0.074416667
1.9192773 20.110758 5.1242566 -0.084521122 0.58289528 0.80815196 0.088664696
3.6852837 20.185287 5.2530079 -0.056650862 0.59337586 0.80294013 0.076222077
2.3272734 20.160961 5.1362386 -0.086252853 0.58779341 0.80440468 0.085792638
4.9606466 20.234766 5.2626071 -0.023536293 0.60743803 0.79404706 0.070691988
1.9372418 19.919828 5.2292924 -0.080690205 0.58105677 0.80986255 0.088160999
3.7185829 19.984632 5.3643947 -0.044158205 0.58881372 0.80706233 0.076568618
4.7535448 20.027369 5.3963742 -0.030602578 0.59457213 0.80348063 0.072643846
5.3319812 20.020676 5.3972659 0.00093846401 0.60230011 0.79827112 0.06885843
7.8737574 20.003462 5.3674364 0.028088387 0.60932177 0.79242712 0.066627912
9.3819141 19.987047 5.3523278 0.030514931 0.60424954 0.79621691 0.073520102
3.2991202 20.212181 5.1917558 -0.064362071 0.593207 0.80248177 0.078982599
4.2809572 20.247746 5.2378678 -0.031457871 0.60192758 0.79793197 0.072920762
5.3607817 20.314425 5.2018991 0.0047419439 0.61756438 0.78651667 0.070031606
7.4694052 20.287174 5.1765275 0.031345669 0.62932801 0.7765215 0.065468736
8.6292925 20.19416 5.219892 0.014496809 0.62444991 0.78093559 0.067367747
7.3680258 20.101202 5.3052044 0.031919971 0.61910826 0.78466463 0.065564163
2.8234744 20.036877 5.2613597 -0.066408224 0.59140271 0.8036418 0.081143089
8.4690866 20.238197 5.1799421 0.026426166 0.6256212 0.77969307 0.067561731
7.8427224 20.344494 5.1241746 0.032129951 0.63072485 0.77537352 0.066705897
6.7298284 20.320314 5.1585112 0.025503991 0.6266036 0.77894223 0.067143448
5.9017496 20.116488 5.3200612 0.0038930043 0.6122244 0.79068756 0.068508022
8.6818752 20.07304 5.2962165 0.024295144 0.6195578 0.78457946 0.067718394
12.987444 20.328962 4.798615 0.089123368 0.63826382 0.76470119 0.08063738
13.314792 20.3193 4.7266684 0.094900399 0.6443249 0.75887638 0.080224112
14.303901 20.00325 4.810884 0.076474071 0.63061726 0.77233082 0.076721773
13.941099 20.290728 4.657351 0.089928359 0.6517908 0.75306344 0.078200839
14.455454 20.21983 4.6527514 0.071216986 0.64443421 0.76135379 0.077165157
15.348577 20.22164 4.6186228 0.034417704 0.63715827 0.76997817 0.081157997
15.843038 20.208105 4.5942059 0.031639464 0.6290713 0.77672839 0.082616277
14.858119 20.221498 4.615088 0.050045736 0.64125985 0.76570755 0.079246029
15.393735 20.420214 4.4199848 0.029626295 0.64547408 0.76322556 0.08015696
12.312839 20.412703 4.8313885 0.088165335 0.64295524 0.76091033 0.081301562
12.851254 20.496038 4.6556149 0.094176307 0.65217233 0.75226772 0.080967829
16.820448 20.100554 4.6750479 0.017711179 0.60422117 0.79669321 0.090704367
16.30188 20.143393 4.6237297 0.010368382 0.62290174 0.7822575 0.087798834
16.307917 19.961391 4.742022 0.013014511 0.60291874 0.79775608 0.088457279
17.275297 20.24489 4.5535498 -0.0081862286 0.59992844 0.80006927 0.089688428
17.783396 20.22817 4.5950127 -0.015700584 0.58130288 0.81359363 0.094567448
17.811115 19.994553 4.7419467 -0.015058151 0.56974667 0.82171613 0.095525846
18.303911 20.234085 4.6472316 -0.013185972 0.56909782 0.82223493 0.10045244
18.726416 20.244635 4.6659522 -0.010827509 0.55464196 0.83203685 0.10564429
19.712975 20.482279 4.5292964 0.018411223 0.54470736 0.83844811 0.11123364
19.340624 20.11973 4.7512345 0.007971881 0.52851981 0.848894 0.10668693
15.285209 19.631035 5.049994 0.045077689 0.59590435 0.80180651 0.078741781
11.864546 20.032335 5.1723399 0.087762378 0.60844147 0.78873754 0.076579481
16.807138 19.868282 4.8190651 0.019620908 0.583646 0.81185073 0.092176311
17.234238 19.75263 4.8778749 0.0016014647 0.57285517 0.81968558 0.09209431
19.000233 19.817678 4.8935452 0.012271926 0.51032716 0.85991973 0.10421231
19.355268 19.670153 4.9288855 0.022425905 0.49267304 0.86993134 0.10676549
13.302454 20.040079 4.9327579 0.092218533 0.62161213 0.7779026 0.079793207
11.234065 20.181643 5.1437249 0.079046294 0.61362463 0.78565484 0.076911837
17.288649 19.893038 4.789165 0.00089642516 0.5793584 0.81510961 0.093503572
18.392101 19.926088 4.810184 -0.010492167 0.55178481 0.83393556 0.10208335
12.879522 19.822515 5.1446195 0.083300516 0.59840876 0.79690784 0.078064568
14.386469 19.722292 4.9896388 0.064073309 0.61376143 0.7868911 0.081500836
14.931309 19.740818 4.949326 0.050167665 0.60770565 0.79258406 0.081560954
15.357967 19.99301 4.7784181 0.033527229 0.62125027 0.78291523 0.080766052
14.802109 20.014099 4.7730064 0.056031916 0.62545788 0.77825737 0.081661567
13.879551 19.98877 4.8792639 0.088531479 0.62899089 0.7723583 0.076145865
17.860495 19.725718 4.8818955 -0.014580688 0.55090046 0.83448476 0.098639354
12.359446 20.207279 4.9753842 0.093402192 0.62041706 0.77873236 0.079489119
11.277539 20.048 5.216145 0.072658062 0.60302967 0.79441088 0.077292383
13.257779 19.882826 5.0322976 0.094407178 0.60925561 0.78734499 0.078733683
12.766891 20.137941 4.954268 0.088999659 0.6159125 0.78286272 0.079748228
13.713963 20.024088 4.8396134 0.088971391 0.62999785 0.77148414 0.078285009
19.316517 20.001703 4.7828088 0.010193583 0.51687557 0.85601532 0.10628831
15.97984 20.011583 4.7082362 0.01892204 0.6105178 0.79182231 0.084623449
16.144594 19.735342 4.9017153 0.018845219 0.58902788 0.80796188 0.085940205
15.983508 19.980629 4.6846266 0.0087765399 0.61100447 0.79163575 0.085686751
16.799908 20.010622 4.6538291 -0.00075599272 0.5966934 0.802517 0.091090202
20.442362 20.247623 4.683207 0.039645676 0.51190466 0.85813904 0.1164942
20.800817 20.240978 4.6611929 0.058378644 0.5135833 0.85606915 0.11767677
21.948841 19.7626 4.7743344 0.096919924 0.44684297 0.88938397 0.11982441
21.36335 20.185383 4.5913081 0.079640046 0.49776259 0.86370862 0.1183609
22.020325 20.062078 4.5944853 0.093549334 0.49547356 0.86364889 0.11906655
23.752245 20.059969 4.3292303 0.17645033 0.53311604 0.82772171 0.12521333
23.258772 20.05389 4.4271102 0.1595953 0.51629055 0.84165549 0.12381279
22.339937 20.133293 4.5372648 0.1086503 0.50152993 0.85845834 0.12155247
22.916832 20.073626 4.4698601 0.1493904 0.50260931 0.85179853 0.12400918
22.470007 20.281311 4.3946171 0.11727203 0.53538221 0.83656442 0.11841562
23.565811 19.811213 4.4878855 0.15339759 0.5069353 0.84831023 0.12140823
22.345705 19.818371 4.6659856 0.10888104 0.46203628 0.88024348 0.12164355
21.311577 19.892952 4.736073 0.082997948 0.46844158 0.8796013 0.11632854
20.938406 20.109623 4.6594129 0.051323012 0.50602901 0.86101174 0.11563556
21.800503 19.918938 4.669508 0.087445736 0.4832499 0.87111086 0.11737487
20.3675 19.925995 4.818089 0.044822112 0.4879885 0.87170184 0.11602128
19.834188 20.032463 4.7543321 0.010629364 0.50925857 0.86054808 0.11127073
23.306448 19.77684 4.5358577 0.15187933 0.49112332 0.85788292 0.12196429
22.816509 19.904448 4.548316 0.13953502 0.49266723 0.85911447 0.12343717
22.831818 19.543968 4.7013121 0.13275898 0.44868204 0.88390589 0.1249497
23.071709 19.554831 4.6847291 0.13717152 0.45273742 0.88113409 0.12280203
20.380138 19.719181 4.8964577 0.045072075 0.46960568 0.88172567 0.11556663
21.252962 19.669565 4.8004818 0.083178759 0.45160651 0.88833225 0.11707614
21.654146 19.737347 4.754868 0.076480635 0.4536539 0.88789922 0.11697908
23.58329 19.788858 4.4620686 0.16619888 0.52628863 0.83403599 0.12039242
