# This PCD file was generated using the MATLAB® pcwrite function
# from Computer Vision System Toolbox®.
# .PCD v.7 - Point Cloud Data file format
VERSION .7
FIELDS x y z
SIZE 4 4 4
TYPE F F F
COUNT 1 1 1
WIDTH 1621
HEIGHT 1
VIEWPOINT 0 0 0 1 0 0 0
POINTS 1621
DATA ascii
24.217779 16.327610 4.859962
24.300585 16.398767 4.316619
24.787298 16.353083 4.774520
22.595339 16.410543 4.606017
23.240187 16.430273 4.695025
23.911520 16.427883 4.431632
23.920603 16.416471 4.780741
21.585169 16.415277 4.916356
20.719141 16.489620 5.180962
24.175520 16.316181 5.131200
24.797611 16.379486 5.182953
20.730425 16.547817 4.892779
22.482796 16.591158 4.883153
25.952986 16.505554 5.167937
22.290007 16.522066 5.149935
22.838047 16.649181 5.193629
26.618118 16.602869 2.791970
26.423107 16.445166 2.994148
26.470158 16.541836 3.222717
28.828770 16.340624 2.586885
26.336357 16.418751 3.686592
28.692028 16.321623 3.436901
27.265406 16.312876 4.005608
28.450720 16.257673 3.866284
27.059418 16.273609 4.221486
27.680397 16.472635 4.264258
26.341881 16.394665 4.401614
26.697367 16.208616 4.565299
26.391376 16.307297 4.860250
27.168322 16.250475 5.194838
28.263536 16.120895 5.017745
28.361923 16.266895 5.176519
30.943630 16.248363 2.593700
30.630274 16.507227 2.285032
29.883743 16.645540 2.025878
31.267818 16.641384 2.279602
32.318798 16.174095 2.695762
31.111139 16.570761 2.836496
29.522022 16.613022 2.834069
31.699726 16.612947 2.878559
33.036522 16.632088 2.918371
29.396038 16.554571 3.278639
30.848373 16.455715 3.344384
30.310474 16.503313 3.660531
30.659828 16.603947 3.743559
30.007030 16.523651 4.004149
31.239283 16.515848 3.853540
-15.988733 16.708076 2.640565
-4.410313 16.657175 4.628685
12.884645 16.696560 5.237760
17.897427 16.771847 4.447020
-4.242228 16.782127 4.714220
-4.512774 16.866095 5.142581
-14.956300 16.869658 2.480148
-16.165768 16.908901 3.706223
2.398946 16.904892 4.963208
-13.891024 16.928528 2.085806
-4.522097 16.914433 4.843166
24.372122 16.721813 3.420088
23.109625 16.897228 3.193869
23.431789 16.746693 3.915524
24.922289 16.810329 2.397007
24.848890 16.736832 2.943789
24.968864 16.757492 3.631623
25.034767 16.901423 3.310084
25.467247 16.764542 2.755065
25.777111 16.763908 2.286633
22.814711 16.919849 4.301658
26.096228 16.761255 4.116711
22.393515 16.785650 4.781672
19.762848 16.787352 4.846444
22.813545 16.858818 4.736913
23.259892 16.886932 4.862471
21.666155 16.903957 5.232375
24.279131 16.923191 5.227399
24.633560 16.860857 5.256496
25.475243 16.880323 4.931743
25.348312 16.822233 5.203907
28.244997 16.653053 3.060615
29.565798 16.687912 2.932631
27.895824 16.732285 3.538138
28.821726 16.804401 4.570605
27.281681 16.922815 2.223318
27.770308 16.916943 4.349955
29.284702 16.890884 2.404509
29.825108 16.882704 2.208242
29.654289 16.882496 2.731481
31.255043 16.707891 2.439519
30.331762 16.887043 2.186043
31.932745 16.687292 2.341974
31.984768 16.784702 2.263811
33.122776 16.668579 2.625848
31.745098 16.754364 2.847002
-14.703084 16.965446 2.282511
-15.074973 16.931837 2.543475
-15.610012 17.025530 2.827038
-14.174029 16.984917 2.110259
18.208689 16.982595 3.138774
-4.329420 16.973921 4.434187
-3.474688 17.128290 4.219310
2.532171 17.033243 4.203412
-5.033134 17.019817 4.966049
0.804342 17.026344 5.148757
20.929642 17.054844 4.799792
19.486588 17.013796 4.933358
19.659679 16.951344 5.226213
32.307354 16.946030 2.592644
26.706810 16.937193 3.716054
23.668524 16.976433 3.475983
27.358912 16.968994 2.894804
23.962812 17.009636 2.796690
30.774666 16.987993 3.331866
29.168488 17.014526 3.862753
29.803860 17.006979 3.883799
30.768175 17.010002 2.648343
21.776972 16.972475 4.657170
24.723331 16.956526 4.352785
23.396950 16.981947 4.425401
28.940676 16.957067 4.373612
30.457415 17.017658 4.262065
23.208977 16.939760 5.223898
25.963381 16.943947 5.229718
25.797323 16.959688 4.813045
30.162321 16.948744 4.976752
24.177095 17.020027 4.778070
26.824501 17.006039 4.793664
27.308254 16.993166 4.813626
23.569197 17.042110 3.512912
26.369448 17.024504 4.814581
21.326620 17.045822 4.793839
24.733307 17.045671 4.807310
23.847254 17.048765 4.914540
21.307869 17.050671 5.219563
28.446459 17.039534 1.994898
29.243925 17.025347 4.238662
30.180054 17.024841 3.303244
29.925802 17.029785 3.429371
32.554260 17.026285 2.040048
30.720154 17.049597 4.873260
30.243349 17.052698 5.167233
24.124611 17.086374 4.428072
27.328030 17.094114 4.275873
29.555387 17.065811 5.217423
29.469061 17.069393 3.124523
27.729839 17.090761 4.714305
27.747738 17.110996 5.178817
32.625919 17.111813 2.099854
26.887960 17.120090 3.012108
30.006374 17.128298 4.367514
21.905874 17.129412 4.236967
-14.935891 17.296097 2.603677
-14.623637 17.339087 2.253288
-14.168805 17.365667 1.939574
-4.219007 17.204660 5.191197
-3.372498 17.316515 4.376886
-7.828738 17.313919 4.989660
17.490410 17.137417 4.305485
18.807562 17.155426 4.689147
1.128039 17.280697 4.479146
-13.817620 17.380386 2.667849
-16.253819 17.382578 3.649163
-15.496434 17.448805 2.340259
-15.159953 17.447405 2.648789
-13.878988 17.479086 2.128520
-14.114607 17.444571 2.170305
-3.819676 17.434540 2.881324
-4.772209 17.438505 3.482984
-3.443984 17.384808 4.413696
-3.579653 17.410492 3.862220
-2.913516 17.418444 4.753059
18.801191 17.425367 4.837438
18.103781 17.433907 4.875940
17.876490 17.441259 5.200835
-3.805913 17.448236 5.249272
-3.345213 17.468412 5.150856
18.352512 17.448956 5.231515
26.963673 17.305597 2.873460
26.760506 17.317135 3.275836
24.470921 17.316441 3.423265
26.045521 17.214828 3.617728
25.038881 17.282917 3.697165
21.283192 17.154299 4.288779
25.740103 17.132742 4.053993
26.958355 17.143290 4.117955
21.352219 17.216610 3.898051
23.001335 17.221907 3.870425
26.721607 17.313200 4.275938
27.345913 17.214769 4.420189
24.385515 17.373598 3.806148
22.987669 17.387522 4.305462
19.701910 17.397274 5.209929
22.904881 17.411596 5.244287
20.525412 17.484543 4.959692
23.111118 17.427650 4.743177
24.222139 17.472984 5.155828
25.091511 17.445736 4.780964
26.196381 17.382114 4.219880
25.885881 17.485733 4.785704
26.350573 17.477411 4.752639
27.076271 17.352987 3.197437
26.798025 17.496384 3.749170
26.903358 17.428112 4.700502
27.227871 17.425610 4.823808
27.637699 17.452152 5.181953
27.803957 17.243296 1.956219
28.298342 17.151281 3.339632
28.522919 17.239458 3.107027
28.894806 17.310598 2.783238
29.802313 17.362814 2.298932
31.346952 17.310633 2.409317
29.665833 17.311604 2.622838
27.880266 17.410894 3.259679
30.284389 17.409628 3.152317
32.011467 17.385046 2.258370
29.448151 17.421375 2.927367
31.805092 17.421377 2.760780
30.810257 17.437994 2.378038
30.349987 17.478836 2.684160
32.299061 17.443644 1.968200
28.753847 17.478256 3.309419
29.911949 17.459732 3.271003
30.651592 17.496754 3.154940
27.939545 17.264687 4.623490
29.064482 17.311741 4.181897
28.163906 17.358278 4.212701
28.872936 17.348000 4.187767
29.224865 17.364357 3.718561
30.288782 17.286913 4.754813
29.682121 17.332041 5.079237
30.196121 17.320465 5.222870
30.447622 17.152853 3.800676
31.067209 17.172054 4.089997
28.800776 17.405603 3.900540
32.344471 17.372412 3.703422
29.736309 17.436216 4.677213
30.632360 17.392033 4.643682
29.361340 17.474018 4.987726
29.824036 17.450466 3.824418
29.824127 17.463285 4.273798
30.272333 17.487780 3.622524
30.077847 17.490467 4.111525
30.753729 17.477537 4.375280
-12.975892 17.889395 -1.182438
-12.986447 17.975000 -0.598758
-12.853586 17.907602 -2.293146
-12.807336 17.898716 -1.808711
-12.816063 17.919514 -1.314554
-12.794795 18.010595 -0.773618
-12.399109 18.076696 -2.065868
-12.222642 17.981401 -1.770734
-12.940412 18.187082 -2.624999
-12.967017 18.283669 -2.669419
-12.351842 18.226124 -1.915859
-12.853635 18.346201 -1.393047
-12.761993 18.399752 -0.665942
-13.032627 19.084873 -2.649788
-12.896363 18.497139 -2.638491
-12.856104 18.441570 -2.196505
-13.007127 18.445965 -1.984590
-13.049480 18.500572 -2.322424
-12.856304 18.830023 -2.307613
-12.991152 18.835966 -2.229410
-12.994337 19.035959 -1.573044
-12.841012 18.877285 -1.812701
-12.838545 18.414511 -1.759658
-12.819036 18.749514 -1.218981
-12.988180 18.561415 -1.064532
-12.792998 19.054125 -0.723381
-12.902373 19.259207 -2.668183
-12.928761 19.338789 -2.082695
-13.077462 19.422745 -2.175371
-13.074500 19.433445 -1.775593
-13.034572 19.388975 -0.824448
-13.018813 19.468887 -1.283339
-12.888907 19.408932 -0.745984
-12.744285 19.505482 -1.754315
-12.768676 19.848595 -0.745440
-12.737882 19.628452 -1.296257
-12.710792 19.558580 -0.440975
-12.437139 19.443869 -1.343866
-10.180499 19.272532 -1.101992
-13.074072 19.933508 -2.374175
-12.975913 20.081318 -1.760697
-12.823343 19.913050 -1.226367
-13.118895 19.968494 -1.201293
-14.690328 20.048750 -0.957141
-14.663423 20.119513 -1.110960
-14.870440 20.053373 -0.435320
-13.215373 19.867891 -0.767106
-14.683678 20.245020 -1.181647
-13.247507 20.478891 -2.658637
-13.138814 20.413799 -2.281103
-13.175831 20.481178 -1.767441
-12.922253 20.217113 -1.100601
-12.851738 20.219791 -0.686495
-13.059311 20.431501 -1.251640
-13.073758 20.458862 -0.809348
-13.866590 22.830050 -2.628803
-13.398026 20.799730 -2.664744
-13.336058 21.206059 -2.334447
-13.500957 21.848221 -2.295464
-13.665851 21.563951 -2.190270
-15.891069 23.323503 -2.171031
-13.413195 22.535633 -2.121510
-13.819718 22.702265 -2.298191
-14.981944 22.997335 -1.942669
-14.064663 23.028090 -2.022310
-14.011341 23.080873 -1.876450
-14.120461 22.597551 -1.545175
-13.602899 21.620638 -1.770954
-13.481227 21.046522 -1.728118
-13.840355 22.581295 -2.069035
-13.682155 22.633762 -1.857740
-15.021905 20.966053 -0.976648
-14.304336 21.266235 -1.404400
-13.327667 21.511915 -1.223969
-15.346458 21.850039 -1.197854
-15.280673 21.383791 -0.727714
-14.096332 21.069214 -0.745880
-13.633342 21.601135 -0.706596
-13.440303 22.143429 -0.808132
-13.744678 22.438829 -1.196293
-13.344025 22.443020 -0.972462
-13.964198 22.469139 -0.730225
-13.731052 22.467916 -0.746545
-14.071406 22.557558 -1.196440
-15.758126 22.608332 -1.153464
-13.278014 22.624584 -1.001047
-14.022742 22.620602 -0.336091
-15.847535 22.829266 -1.275688
-14.893626 23.186293 -0.468307
-14.449191 22.960135 -1.214421
-13.918976 22.981993 -1.312286
-13.732896 22.813442 -0.313918
-13.767175 22.951418 -0.774546
-13.253533 20.911077 -2.173369
-13.080557 20.903078 -1.751551
-13.218406 21.453007 -1.721382
-12.663096 22.265093 -2.396434
-12.905466 22.703230 -2.615433
-13.123068 20.788584 -1.245444
-13.212083 22.051588 -1.272989
-12.936326 21.106485 -1.132093
-12.859406 20.980732 -0.980364
-13.192012 21.518364 -0.892701
-13.124810 20.893629 -0.737786
-12.953569 21.732376 -0.739985
-12.922323 21.631229 -0.694703
-1.274899 23.127148 -0.628455
-4.849092 23.166002 -0.559038
-4.774696 23.254498 -0.577912
23.671047 20.285423 -1.580183
23.992672 21.400181 -2.095412
1.465924 21.904898 -0.407391
4.141288 22.417555 -1.110656
14.899091 22.454849 -0.920775
22.966328 21.778616 -0.564342
19.445883 22.932520 -0.810457
19.640917 22.955675 -1.178016
17.372492 23.097521 -0.738970
17.835051 23.174570 -1.220277
17.816067 23.321821 -0.470578
17.969366 23.236204 -1.745805
24.821949 22.788223 -1.427783
26.286501 22.833538 -2.155521
26.263746 22.964499 -0.735694
25.994646 23.160528 -0.537621
30.182579 17.584385 -1.437347
31.388647 17.756601 -1.321672
32.547199 17.845003 -1.266736
35.286930 19.182392 -1.774728
34.832577 17.788059 -1.525471
34.986671 18.531919 -1.352266
36.742725 17.994255 -1.906863
31.029053 17.628620 -0.495623
31.129339 17.635714 -0.486870
33.359627 17.786488 -0.970859
31.204197 18.013424 -0.596277
34.620426 18.888023 -0.746754
34.624607 18.407118 -0.611286
35.249916 19.515610 -0.775750
26.841040 20.252588 -0.360568
30.502958 20.257696 -1.451325
31.501001 21.218748 -1.045012
33.500595 21.017735 -1.874080
26.797018 22.427635 -1.340385
27.303175 22.395008 -0.940836
28.534456 23.136646 -1.555092
30.366650 21.912256 -1.426419
31.612757 22.175573 -2.534397
-14.690544 19.224842 -0.254276
-13.621422 19.099316 -0.184610
-13.479376 17.685785 -0.179357
-14.519459 18.245045 -0.110295
-13.318973 18.264915 -0.147481
-13.067584 17.996386 -0.144956
-12.993609 17.633293 0.005534
-13.206010 19.946194 -0.126098
-13.147862 18.839024 -0.082849
-13.121642 19.468973 -0.275168
-12.837021 17.932844 -0.229543
-12.806625 17.522663 -0.244781
-12.791603 18.443594 -0.220023
-12.779297 18.892370 -0.171716
-12.820553 21.398651 -0.273526
-12.754516 20.866762 -0.190101
-13.687925 20.924545 -0.201634
-13.206886 20.905594 -0.173497
-13.527446 21.510300 -0.128094
-13.284220 21.356644 -0.116091
-13.146653 20.519344 -0.160553
-12.780863 20.355612 -0.079497
-12.953105 22.340797 -0.300290
-13.881057 22.148249 -0.279451
-12.760859 21.701933 -0.278321
-13.276807 21.953911 -0.233893
-16.142258 22.677208 -0.090020
-13.710959 22.484495 -0.131055
-16.227003 22.847507 -0.130700
-14.274142 23.192944 -0.007752
-14.686814 18.415989 0.229064
-13.634430 20.528004 0.233191
-13.126829 17.982098 0.251872
-12.855715 17.882025 0.260751
-13.119878 18.359436 0.285794
-12.780551 18.411135 0.278573
-13.170583 20.463865 0.167032
-13.134817 19.436687 0.265781
-13.099970 18.846872 0.289281
-13.536898 18.925701 0.304806
-13.550132 19.989931 0.317381
-12.883742 19.855850 0.323544
-13.607836 19.263382 0.341332
-13.480966 18.274740 0.392746
-12.598506 18.901766 0.347960
-13.595072 21.040037 0.254553
-13.574080 21.545523 0.127637
-15.867234 21.974089 0.176913
-13.825184 21.826525 0.335757
-12.782980 21.389557 0.215974
-13.228561 21.616497 0.225920
-13.258615 21.817202 0.243185
-12.483912 20.680931 0.330539
-13.162394 20.982229 0.287180
-15.945584 22.087645 0.237853
-14.718409 22.727606 0.237021
-16.374914 22.909258 0.195612
-13.691010 22.392668 0.122932
-13.386208 22.776472 0.254345
-13.939285 23.176723 0.285120
-13.806794 22.957487 0.398773
-12.269759 19.464020 -0.076002
-10.469722 21.513996 -0.200962
-8.527686 23.061777 0.005481
-8.064553 21.470873 0.048173
-4.666674 23.053473 -0.188744
-4.689184 19.816904 -0.017434
-0.643419 22.514992 -0.028189
-12.356136 18.475435 0.299499
-12.370361 20.665741 0.363813
-12.174807 19.316614 0.236208
-7.236756 23.121201 0.102919
-10.307308 22.023901 0.154719
-6.732100 22.598644 0.111993
-6.955984 23.249388 0.199615
-6.858027 23.274456 0.242274
-4.475490 23.005405 0.254780
-13.237361 17.937887 0.740262
-12.904289 17.972340 0.508889
-12.765937 18.371014 0.577005
-14.855104 18.587011 0.563853
-12.685907 18.945415 0.613882
-13.142041 18.466024 0.701601
-13.370619 19.822760 0.453124
-13.967884 20.863245 0.412744
-15.579412 20.877966 0.680625
-13.583668 21.042231 0.648858
-13.347890 19.884113 0.731633
-6.170838 21.134268 0.666776
-4.450593 21.046545 0.693832
-12.914068 21.619936 0.526118
-9.548120 21.452154 0.532562
-6.597016 22.524790 0.573800
-14.283567 21.546324 0.593138
-13.671984 22.982302 0.602928
-6.756716 23.291891 0.616189
-2.577452 23.321766 0.625732
-1.719893 22.948481 0.637290
-13.693471 21.476376 0.682398
-13.169672 21.739878 0.663537
-13.295636 22.470343 0.662892
-13.595149 21.956896 0.673388
-11.314222 22.145620 0.682284
-5.676888 22.430008 0.728979
-3.057591 22.426723 0.738047
-7.015329 22.992176 0.675218
-3.459800 23.013170 0.654902
-3.717344 23.256067 0.734324
-14.848859 17.909418 0.855496
-16.367563 19.775202 0.780653
-13.314720 17.514427 0.790851
-12.308614 19.219261 0.823734
-13.501397 18.994831 0.825719
-13.470577 18.284292 0.861116
-13.193330 18.855352 0.838931
-13.617202 19.923937 0.788075
-13.132731 19.428223 0.803135
-13.698074 19.472836 0.863225
-13.264743 20.337130 0.833733
-13.697989 20.585207 0.825409
-13.543198 17.700396 0.903090
-4.406991 17.858469 0.918696
-15.058111 18.794153 0.939565
-12.904790 18.306522 1.029470
-12.205670 18.454536 0.882245
-15.416780 20.197088 0.878350
-13.962699 19.719547 1.005327
-12.818173 19.821173 0.927451
-15.866334 21.415220 0.855003
-15.513943 23.316662 0.861587
-14.817396 22.827133 0.972742
-14.249224 22.016869 0.817272
-14.283567 22.321350 0.839938
-14.168528 23.027473 0.792763
-13.559435 22.211517 0.837868
-13.224363 21.606974 0.773564
-13.275694 22.841873 1.012516
-12.552542 22.041519 0.819230
-12.273311 21.285410 1.021358
-10.047771 21.843922 0.820587
-9.571296 23.039690 1.020871
-7.672943 22.758186 0.912061
-8.457097 23.327515 0.913745
-6.299073 22.323307 0.947455
-5.328597 23.285530 0.927785
-2.148221 22.723518 0.892235
7.327903 22.903629 -0.287040
13.187082 22.022905 0.034836
3.558985 21.035101 0.357838
6.337379 21.655262 0.556588
6.825069 23.142605 0.585260
12.404441 21.025188 0.555891
11.377234 22.140629 0.519085
19.968031 22.659929 -0.257858
19.320240 22.566696 -0.111172
22.299831 22.756605 -0.127642
18.215887 22.903776 0.121562
19.269321 23.113754 0.102866
17.359646 22.941484 0.310977
15.277186 22.958942 0.467709
15.683562 23.157015 0.468674
19.117254 22.448330 0.284337
21.354183 23.177319 0.598699
22.375559 23.318388 0.460457
20.328459 21.015553 0.658516
18.580057 21.884901 0.658075
13.857453 22.114408 0.776235
10.559079 22.700390 0.768380
17.247355 22.687283 0.744704
15.601485 22.459776 0.830166
10.628045 22.503870 0.886770
4.976074 22.777121 0.899896
17.762123 22.499847 0.965247
17.026510 22.609419 0.969941
9.148277 22.588318 0.979496
17.807287 22.865616 0.690961
19.120369 22.844923 0.735161
18.874807 23.081491 0.731322
11.259642 23.016685 0.740324
13.769594 23.102516 0.809067
8.751290 23.321016 0.843848
16.905853 23.147781 0.824819
20.284786 23.309809 0.845694
14.637051 22.892210 0.853650
12.565848 22.912148 0.939689
15.658934 22.934881 0.949068
17.303602 22.998253 0.863735
15.514357 23.029522 0.876190
9.991768 23.043962 0.938354
11.785869 23.134596 0.898328
5.652465 23.256472 0.978682
22.310801 23.203941 0.869353
24.775450 22.231922 -0.215870
25.611752 23.277149 -0.078635
27.946445 19.984463 -0.249894
27.987415 20.972448 -0.040634
23.955444 21.846430 -0.052031
26.832968 21.515240 0.123698
26.135614 23.047098 0.000850
28.021969 22.529339 0.058309
22.878981 20.716051 0.300777
24.262703 21.623636 0.299560
22.941303 21.550453 0.441205
24.552650 23.208578 0.432331
24.563351 23.302654 0.417313
26.561758 21.409054 0.354933
26.665144 21.899271 0.389493
23.195129 23.264687 1.000539
24.370777 20.994459 0.862724
24.294008 21.584101 0.885325
24.285614 22.001467 0.947882
24.411650 23.319633 0.863274
24.791063 22.642797 0.680833
24.851181 22.154854 0.919983
25.113249 19.891735 0.737292
25.102814 22.046242 0.749923
25.018143 22.973816 1.052572
27.225973 20.278223 0.662588
26.341030 21.416313 0.630160
25.220469 20.497807 0.753274
25.355860 21.633720 0.763128
25.560879 22.215586 0.992733
25.661709 22.579811 0.734708
25.337351 23.041552 0.748517
25.946569 22.827078 0.826129
25.999168 23.293251 0.765452
28.955954 19.173840 0.996369
29.341475 19.758827 0.313794
28.304529 20.011002 0.807721
28.572460 20.354675 0.506072
28.925013 20.496244 0.412845
28.356205 20.859272 0.981207
29.133139 21.233511 0.856163
28.583683 21.912228 -0.144537
28.116901 21.583567 0.755943
29.737068 18.461447 0.412983
30.557568 18.398050 0.766311
29.925840 18.755295 -0.295995
29.533108 19.855053 0.906671
29.673634 19.764311 1.010039
29.622450 20.634100 0.054053
29.655315 20.393641 0.917824
29.795921 21.065475 0.725931
29.770998 21.367783 0.993397
30.047409 21.056549 0.447063
30.273722 21.640326 -0.100404
30.932985 21.187559 -0.212827
31.537924 20.225313 -0.073073
31.339277 20.547386 0.307675
33.468033 17.651304 0.280443
34.141846 18.090258 0.123115
34.400143 19.114969 0.153386
33.277363 17.600307 0.582285
33.415520 18.660269 0.789416
32.345329 19.707951 0.861511
33.531555 18.161528 0.566007
34.382114 18.231441 0.632854
33.537941 18.917454 0.965046
33.624245 19.098192 1.018393
-14.959967 18.010223 1.070643
-12.837285 18.872358 1.093255
-12.317419 18.589470 1.105416
-13.198776 19.465132 1.178469
-12.616341 20.984648 1.157490
-14.235158 22.349688 1.071833
-14.102368 21.853573 1.091890
-14.234431 21.488272 1.133881
-13.920588 22.251759 1.175288
-13.437503 22.059046 1.069628
-14.441248 22.921612 1.151034
-15.489753 23.322500 1.069132
-13.668666 23.320883 1.123078
-15.857383 20.963947 1.278333
-15.999201 20.595118 1.312817
-13.570098 18.342579 1.266087
-13.674698 17.919640 1.312029
-13.407162 18.790588 1.300710
-13.733255 19.893761 1.247083
-13.652150 21.465792 1.257324
-13.201454 17.865561 1.209063
-13.278195 18.475859 1.221365
-12.997090 20.104145 1.268653
-12.923712 21.190483 1.300244
-7.662542 23.057072 1.062328
-7.420607 21.242401 1.200429
-6.444044 21.851995 1.185958
-6.904766 23.308626 1.193202
-2.855810 22.087385 1.193727
-4.179544 22.756306 1.088240
-3.548572 22.804665 1.204009
-4.901226 23.217186 1.079787
0.651007 22.530838 1.284667
-1.952096 23.035213 1.229826
-1.671189 23.274786 1.090847
3.337618 23.055433 1.068526
2.953132 23.103270 1.190987
4.392186 23.044754 1.239113
-14.224730 19.950794 1.391383
-13.958476 20.622288 1.370921
-13.749716 20.352194 1.369576
-13.696713 18.919834 1.365170
-13.682011 19.429562 1.327183
-7.679240 20.064186 1.399066
-13.972394 19.049820 1.466513
-13.280607 19.243645 1.510705
-9.820588 21.009754 1.439381
-15.971584 21.194584 1.335169
-13.155812 21.441212 1.409194
-15.966496 21.089746 1.420657
-13.732298 22.062241 1.537143
-9.803782 21.829338 1.500442
-12.831355 22.509569 1.482148
-8.169632 23.146639 1.331337
-7.063024 22.129261 1.545578
-9.377611 22.205854 1.547557
-14.956649 22.625626 1.503613
-14.816387 22.821520 1.539568
-6.177784 22.020775 1.436694
-6.141019 22.325787 1.529686
-3.087826 21.615753 1.464713
-4.252243 20.926710 1.495397
-4.305233 22.405609 1.399055
-3.208308 22.522942 1.462085
-0.866040 21.950113 1.450621
-0.947259 21.954885 1.441593
-2.802122 22.239382 1.531949
1.666596 21.507889 1.400658
0.036475 22.581175 1.442562
-1.726209 22.606302 1.395808
-3.194133 22.702101 1.410078
1.829508 22.778801 1.489292
-6.747072 22.816921 1.399944
-5.975546 22.927738 1.429535
-2.669742 23.074987 1.334008
-0.297343 23.261799 1.400776
-4.249685 23.314514 1.393222
-1.553811 23.114431 1.473798
4.349597 23.266302 1.457519
-0.312695 23.145508 1.512930
4.276378 23.243921 1.529539
-15.269303 17.788811 1.807727
-14.492470 18.112677 1.842105
-14.501318 18.232512 1.781457
-15.372766 18.361040 1.820941
-14.155300 18.068571 1.855675
-13.854582 17.852507 1.760798
-13.199497 17.890945 1.697382
-15.542606 19.282198 1.757663
-14.146461 18.898504 1.740530
-14.266160 18.460562 1.854260
-13.717394 18.498631 1.750218
-13.333634 18.520653 1.651988
-13.808210 19.000223 1.566829
-12.694119 18.733557 1.608336
-13.389168 19.731359 1.614008
-12.894964 20.071627 1.606140
-14.112131 20.892672 1.698462
-13.800023 20.357977 1.690479
-14.165090 19.865730 1.727533
-13.663535 20.019781 1.739842
-14.145998 20.498888 1.731814
-15.715458 19.916227 1.755550
-14.683846 19.488588 1.846767
-14.040375 19.484810 1.858234
-13.892077 20.984274 1.841606
-12.554625 19.514376 1.792671
-13.018875 20.584343 1.801947
-13.067832 21.084049 1.838594
-5.534010 20.937588 1.699336
-12.106465 21.061083 1.590599
-9.062993 21.173229 1.584755
0.327810 21.058779 1.672739
-5.180149 19.503380 1.774847
-6.927705 19.856586 1.808600
-4.185435 17.632023 1.763077
-4.195996 19.030184 1.782802
-7.481129 21.315069 1.599670
-4.364289 21.627237 1.634983
-10.872801 21.802971 1.599945
-14.137671 22.179207 1.569206
-1.977034 22.405205 1.702679
-3.403687 22.433405 1.664106
3.018939 22.411081 1.592888
-14.708989 22.029760 1.801847
-14.584952 22.304844 1.747464
-13.130607 21.287560 1.832617
-16.264978 21.208912 1.833733
-14.094275 21.421749 1.862512
-8.364373 21.233984 1.828543
-8.534025 21.680660 1.734900
-6.130313 21.978910 1.746437
0.321912 22.444183 1.754228
1.863711 21.403034 1.785714
-4.103401 22.244925 1.823529
-13.690609 22.647379 1.602628
-14.111808 22.695248 1.577912
-7.531562 22.563013 1.599796
-6.657181 23.262222 1.591482
-12.961900 22.485250 1.628665
-5.107491 22.554453 1.687958
-5.706881 23.083719 1.706105
-13.630244 22.690260 1.754961
-15.029970 22.569168 1.773161
-10.848346 22.933281 1.812380
-9.750010 23.086201 1.845247
-6.118176 22.854927 1.719760
-4.639190 22.961796 1.719725
-6.693577 22.991985 1.761243
-7.790000 23.030895 1.796723
-7.146758 22.887102 1.847160
-5.034589 22.932976 1.800980
-3.256728 22.813152 1.752421
-2.557302 22.909344 1.741209
-1.684414 22.939331 1.801452
0.448172 23.007317 1.837244
-1.362874 22.506653 1.843434
-0.820824 22.977859 1.849484
1.856757 22.637741 1.689839
4.283823 22.515779 1.779726
5.230754 22.591986 1.813538
3.780336 22.740322 1.843070
1.982492 22.985991 1.611274
3.372816 22.973522 1.612772
2.069923 23.023294 1.754690
4.475510 22.879789 1.786008
-14.988525 19.211672 1.917888
-16.026148 20.652039 1.914829
-16.062124 20.789787 1.886278
-14.635243 20.439646 1.924257
-14.730698 20.026257 1.927579
-14.473672 17.678911 1.993320
-13.645279 19.971130 2.054264
-13.228222 19.302923 2.075122
-12.413144 19.504663 2.006187
-15.922993 20.004831 2.136228
-14.159255 18.357264 2.130741
-14.238929 18.981243 2.131378
-14.213447 20.200275 2.107029
-14.048480 17.869881 2.087283
-13.895245 17.911802 2.105646
-13.907533 19.267653 2.084943
-15.608373 18.631525 2.185668
-15.690052 18.999586 2.190989
-14.940139 19.157354 2.208894
-14.262962 19.749479 2.161431
-13.876102 20.781504 2.195508
-13.733331 20.288620 2.165450
-12.777460 19.989965 2.182487
-8.955988 18.694740 2.179673
-7.472669 19.847507 1.987573
-7.348676 20.859850 1.876547
-7.217292 21.020811 2.078015
-5.765092 20.714388 2.009522
-4.721931 20.479828 2.114291
-4.005832 17.635544 2.168883
-4.114079 17.730488 2.080354
-14.780648 17.922533 2.301745
-13.715949 18.433006 2.254938
-14.741882 18.458031 2.337558
-14.684675 18.882380 2.288137
-13.674663 19.059696 2.235162
-13.142376 18.972340 2.288136
-14.026129 19.387077 2.254951
-14.826301 19.427696 2.254545
-15.879715 19.550550 2.300869
-15.588610 17.769257 2.429692
-14.996387 17.565802 2.440491
-8.870676 17.855448 2.454115
-15.044411 18.584814 2.472514
-14.997226 17.837225 2.476691
-15.965489 19.710814 2.384258
-15.947452 19.623476 2.394869
-15.012247 19.563526 2.443287
-2.165405 19.520475 2.473546
1.165725 21.059397 2.230457
-14.675406 20.352232 2.239249
-14.085102 20.719185 2.245185
-14.784799 19.889044 2.261205
-2.318030 21.057066 2.278155
-7.502256 20.263002 2.294364
-0.050951 21.027145 2.292576
0.178308 21.061413 2.292854
-15.035510 20.231035 2.303973
-15.193424 20.981483 2.312208
1.562924 20.950562 2.326162
-14.986996 19.863874 2.455208
-4.967435 21.223438 2.385411
-2.290972 20.405647 2.360742
-1.085289 20.593250 2.405855
-2.987858 21.029684 2.485570
2.102810 21.054794 2.502800
-13.975362 21.516144 2.151460
-13.670859 21.533831 1.950302
-13.685460 21.427271 2.178464
-1.210400 21.265388 1.945392
1.349084 21.359509 1.978197
-5.488374 21.490772 2.072330
-4.254745 21.586508 2.085139
-15.130111 21.503311 2.242823
-13.315581 21.383154 2.475149
-2.694352 21.419817 2.262599
1.986063 21.426577 2.288908
-1.655242 21.489916 2.207405
-4.671628 21.532242 2.372993
0.626697 21.558704 2.463373
-2.588566 21.845064 1.873081
-15.059620 21.848097 1.901428
-13.057458 21.787056 2.083326
-14.824826 21.887863 2.190883
3.090439 21.838003 2.197231
-7.472048 21.856045 2.383122
-15.050815 21.860870 2.223149
1.291799 21.797337 2.413684
-13.778428 21.904242 2.228367
-5.758373 21.890963 2.307452
-4.646553 21.896927 2.283285
-5.187623 21.870560 2.415287
-4.208749 21.993471 1.917605
-6.895970 22.058838 2.088694
-14.202887 22.086378 2.171500
-6.576398 22.132538 1.888865
-8.080070 22.175079 1.948782
-12.734097 22.264935 2.089556
0.617097 22.280350 2.160371
0.809108 22.360188 1.868281
-1.665361 22.421276 1.893978
-6.137699 22.023031 2.199167
-7.279540 22.007294 2.223657
-15.204394 22.314436 2.197361
-14.277992 22.356680 2.210398
-13.743115 22.346104 2.500317
-2.565245 22.034191 2.240911
-3.160093 22.050444 2.273961
-3.872270 22.078051 2.292853
0.555767 22.111677 2.194159
5.095659 22.393595 2.210995
-3.917517 22.260237 2.227810
-1.998978 22.377497 2.233239
-4.097992 21.954605 2.379958
-4.303029 22.362034 2.369064
0.277198 22.197989 2.474510
4.973395 21.918289 2.478196
-7.266342 22.547956 1.896776
-13.664688 23.268583 1.884394
-9.825991 23.311775 1.974531
-10.063656 23.227514 2.045056
-14.669555 22.429441 2.107014
-14.587387 22.941586 2.192343
-14.222188 22.777216 2.111778
-5.094475 22.531040 2.065475
-8.385743 22.832436 2.066732
-9.871726 23.206146 2.062712
-6.092977 22.899181 2.145014
-3.914629 22.686371 1.874671
-1.374950 22.536417 2.024169
-0.912638 22.682961 2.026641
-1.633848 22.813553 2.036122
1.715375 22.455667 2.111764
-2.642498 22.712154 2.148515
4.551655 22.727242 2.159008
-3.313893 22.649763 2.186773
-1.087710 22.948187 1.885104
2.929584 22.972977 1.891870
-0.160785 22.895960 2.191622
2.903147 22.908125 2.194668
-4.095012 22.921959 2.089618
1.024467 23.011709 2.117578
1.539440 23.135246 1.948928
-3.295624 23.285151 1.979705
-2.851425 22.535093 2.229313
-1.199907 22.740503 2.231833
3.781225 22.598368 2.228581
4.367398 22.460289 2.245483
-6.632932 22.842089 2.238317
-4.748605 22.829601 2.246591
-0.698415 22.766010 2.272333
2.526627 22.534388 2.287892
-1.831097 22.457289 2.356540
3.249299 22.518660 2.322992
-5.723968 22.553524 2.353180
-6.070046 22.576452 2.407078
-4.638249 22.684734 2.301617
-7.154388 22.842354 2.306106
2.146706 22.734665 2.437549
-13.568728 23.310619 2.347618
-13.067884 23.039007 2.416351
-9.677026 23.041199 2.293617
-9.999865 23.038218 2.404081
-5.598511 22.965578 2.235792
-8.692018 23.044128 2.294929
-9.327467 22.957792 2.489658
-7.699182 22.894596 2.378300
-6.941180 23.292648 2.420621
0.430756 22.899727 2.261931
4.697015 22.872862 2.212431
1.376059 22.931221 2.294039
3.867448 22.985081 2.368004
-2.327907 23.065966 2.287057
-3.450822 23.107801 2.321507
3.561513 23.124771 2.440031
-3.129843 23.312435 2.406469
30.941412 17.837877 1.311618
30.215393 17.730585 1.327079
30.737717 18.592524 1.364987
29.049231 18.502848 1.509478
23.703524 17.801046 1.596714
30.119251 18.144278 1.704809
29.089533 18.548906 1.802691
28.570744 18.940214 1.708665
34.155212 18.147242 1.147011
31.442268 17.663393 1.675111
33.608009 18.035780 1.640596
32.714100 17.863703 1.842948
33.217060 17.900995 1.730484
32.247330 18.988558 1.136467
33.470543 18.784643 1.232859
32.138523 18.405285 1.786995
32.623905 18.312677 1.508957
32.041779 18.852840 1.637576
30.414234 17.573273 2.374953
30.585329 17.792774 2.096417
32.987614 17.773787 2.246774
30.302893 17.897429 2.243802
27.321541 17.942654 2.020176
29.395668 18.168852 2.289164
31.849724 18.091547 2.317537
28.646248 18.002804 2.402684
29.911394 18.196457 2.426825
13.500071 18.456293 2.030982
30.069649 18.357252 1.985452
28.748568 18.369949 2.240010
32.306736 18.489321 2.246141
30.307001 18.423401 2.276282
16.100967 18.582718 2.045810
31.709082 18.603554 2.249285
26.574684 18.722399 2.457341
31.496347 18.867247 2.366333
21.980486 19.653656 1.461827
21.831215 19.484701 1.855567
21.771803 19.918699 1.699685
22.464682 20.039797 1.799560
25.812632 20.116541 1.254918
25.548845 20.187723 1.640316
26.600979 20.006176 2.035299
24.704960 19.168669 2.234270
25.643570 19.641163 2.379137
21.962845 19.990747 2.371292
25.324486 19.954189 2.314645
12.008089 19.318583 2.401723
26.539913 19.884047 2.437906
21.967402 20.191559 2.449269
23.049772 20.034115 2.498849
27.269567 19.344536 1.854135
28.055517 20.190832 2.069152
28.005119 19.936003 2.510421
28.183222 19.965973 2.446470
28.208540 19.999905 1.187479
28.244820 19.119242 2.251236
28.246031 19.238359 2.168229
28.281353 20.174812 1.816824
28.471470 19.014338 1.719018
28.701372 19.559872 1.821622
28.982861 19.600407 2.089427
28.884426 19.642178 1.266609
29.364643 20.108797 1.613335
28.837500 20.126392 2.409872
30.792866 19.386711 1.335660
30.549675 19.382734 1.759802
30.612743 19.306812 1.731702
32.111149 19.274315 1.210674
30.527138 19.716204 1.830168
30.016094 20.173576 1.886309
30.264563 19.699583 2.287499
29.858475 19.305084 2.350210
30.971132 19.033379 2.055998
31.390505 19.238441 2.404273
15.928421 20.516264 1.811977
15.895100 20.403578 2.292727
19.812979 20.543343 2.224591
21.266779 20.562405 2.327769
7.923800 20.649584 2.100110
14.392883 20.689003 1.706643
12.295698 20.574522 2.391048
12.268356 20.855099 2.044580
12.298664 21.001682 1.294752
18.205086 20.809074 1.924180
16.128063 20.732571 1.970327
17.306187 21.015188 2.305554
20.347830 21.039989 2.381650
27.374208 20.847582 1.397957
27.358494 20.670362 1.412044
24.691002 20.859413 1.797282
26.956089 20.629982 1.844360
27.228273 20.737875 1.876979
28.628662 20.244104 1.153119
29.615643 20.344072 1.172569
30.206474 20.835070 1.250460
29.431400 20.891151 1.199129
29.526691 20.391977 1.341857
28.608345 20.988266 1.362906
29.339235 20.236317 1.855553
23.671051 20.261763 2.057486
25.578451 20.298767 2.383582
25.755888 20.307606 1.999003
27.378216 20.403187 1.922540
27.094318 20.381973 2.176155
28.443375 20.399992 2.084895
29.140619 20.446482 2.243176
26.906151 20.451813 2.407109
23.769258 20.970102 2.096108
24.398392 20.857096 2.200434
25.708113 20.901033 1.961533
28.284065 20.900352 2.072494
24.779324 20.919975 2.218688
25.427586 20.856758 2.306019
25.899452 20.948088 2.443020
27.922291 20.714308 2.381386
13.454965 21.184019 1.763165
24.439730 21.311987 1.800272
22.391521 21.098543 1.852297
19.692785 21.264599 1.879573
26.883404 21.302032 1.870858
29.187817 21.215059 1.874547
24.290718 21.184366 1.928157
15.967226 21.116545 1.998683
24.412704 21.250834 2.067034
13.583473 21.315393 1.905354
12.883157 21.340744 1.972425
26.685806 21.074842 2.447464
7.423232 21.081438 2.206583
17.644709 21.099022 2.229589
16.965212 21.086035 2.408015
15.907234 21.128834 2.258845
13.715402 21.157093 2.243422
20.717190 21.177927 2.279723
23.039022 21.120634 2.406531
14.371364 21.202629 2.213234
13.642848 21.238419 2.220313
18.784010 21.240881 2.178481
20.506569 21.247030 2.253750
21.322905 21.326147 2.233193
12.742485 21.266909 2.384588
17.733786 21.318014 2.352515
26.503319 21.222038 2.457657
26.173775 21.430496 1.100221
20.637499 21.404997 1.630678
27.741180 21.436432 1.686266
17.258255 21.463640 1.282282
27.129513 21.473307 1.182057
10.948812 21.376869 2.299131
19.325344 21.424322 2.278699
20.329739 21.450579 1.847116
23.766899 21.377712 2.141957
23.229881 21.413700 2.174251
20.776367 21.419033 2.208174
25.843275 21.443455 2.272102
11.905888 21.559046 1.870675
18.869450 21.487324 1.353348
19.075785 21.487425 1.764337
20.737679 21.584049 1.262425
23.908918 21.521097 1.378397
25.464605 21.598614 1.763661
26.123461 21.591648 1.732475
11.855338 21.510536 2.246724
15.472009 21.523994 2.479207
16.830353 21.495096 2.338607
22.417385 21.499718 1.934289
17.464060 21.525597 2.407423
14.833056 21.550196 2.216469
18.233036 21.574200 2.294283
11.362411 21.969702 1.299943
13.145914 22.066111 1.269230
15.595201 22.187910 1.221246
16.253838 22.049532 1.133100
8.057213 22.461218 1.311963
14.296605 22.537384 1.249764
15.303969 22.524372 1.285871
18.518593 21.755938 1.159652
19.563007 22.226141 1.304260
17.358915 22.515993 1.258091
17.913944 22.338076 1.305989
19.358383 22.494286 1.175694
23.649187 21.984093 1.295475
26.070097 22.075188 1.089381
13.677381 22.114334 1.352853
12.050550 21.699841 1.363171
14.918139 21.843256 1.422629
18.024563 21.888008 1.471164
25.534828 22.021637 1.447316
24.035175 21.672394 1.521143
24.756939 21.998775 1.551426
12.584308 22.461351 1.363361
15.484972 22.143005 1.361851
8.931263 22.465797 1.382503
24.482595 22.353373 1.383097
13.730660 22.243801 1.491074
12.563082 22.336845 1.511359
20.944685 22.394670 1.473006
9.494226 22.605562 1.150899
16.880009 22.610556 1.233959
15.710415 22.896866 1.172003
10.586420 22.903612 1.214032
18.894043 22.905138 1.228218
18.386875 22.810404 1.258956
25.664938 22.782133 1.243222
21.293663 22.828493 1.244398
6.269843 23.262852 1.119930
8.496404 23.323671 1.218847
20.573782 23.133142 1.122588
17.557442 23.190178 1.162379
19.454813 23.096344 1.181425
16.882191 23.006216 1.246096
20.020781 23.212118 1.265710
9.948219 22.758415 1.481444
10.259124 23.004629 1.386145
5.813758 23.114437 1.314148
15.328239 22.834938 1.369349
13.512589 22.919876 1.386378
14.690348 22.744244 1.389684
12.647896 22.856136 1.435228
18.804228 23.307978 1.355215
17.651537 23.000616 1.413946
20.061527 23.179182 1.400019
18.902136 22.590284 1.459931
17.147007 22.900110 1.475262
23.137094 22.713127 1.432979
25.166439 22.961700 1.347832
21.642778 23.304749 1.525624
15.491873 22.633223 1.586612
8.948353 22.641365 1.622262
14.172630 22.560144 1.631436
12.385391 22.950497 1.629750
7.677212 22.990162 1.592606
6.917998 23.111233 1.651526
15.582151 22.606581 1.655612
12.499617 22.535162 1.666145
8.861963 22.911692 1.665648
11.263969 22.963554 1.671661
14.636482 22.911081 1.663865
10.916012 23.022255 1.695124
5.856371 23.019630 1.695781
8.546637 23.215065 1.711298
10.957774 22.564806 1.728556
10.311551 22.441055 1.735552
14.856291 21.679188 1.724654
13.465764 22.054600 1.679263
13.531799 22.574200 1.733548
14.919006 22.462164 1.714064
15.451809 22.869455 1.717299
17.777786 22.277346 1.705001
18.801283 22.542315 1.659491
21.878244 22.407625 1.617249
23.208406 22.446238 1.673167
24.960760 22.236174 1.736417
26.492517 22.350018 1.628173
25.568548 22.671555 1.654087
23.421478 22.867290 1.626981
17.608194 23.075783 1.582567
24.136259 23.198399 1.663586
15.624672 22.938742 1.713076
18.773043 22.909002 1.714404
24.867292 22.837658 1.707462
15.482135 22.124346 1.738657
19.357189 22.846493 1.753984
11.828397 23.019211 1.759470
10.332618 23.268631 1.746863
22.303982 22.437981 1.754200
21.828014 23.087795 1.766790
25.276579 22.023468 1.754163
25.366411 23.230947 1.764545
25.380669 22.484390 1.764731
25.891096 21.902056 1.769407
16.197952 21.869526 1.776273
21.252768 22.828167 1.771936
16.876490 22.875828 1.782546
19.755566 22.539928 1.780453
6.302849 22.288754 1.788322
12.823352 23.174372 1.788682
18.707058 21.862406 1.791917
16.326109 22.932602 1.797595
23.795731 21.839611 1.796624
13.674690 21.990223 1.811740
9.505904 22.523211 1.812830
9.961606 22.831623 1.816160
9.994421 22.614586 1.839341
8.869598 22.169107 1.848242
12.362747 21.990534 1.846234
11.815726 22.683792 1.878210
20.306820 21.774593 1.813988
18.376738 22.848850 1.830412
24.394251 22.328897 1.804430
23.943537 22.936766 1.810594
22.800562 22.493101 1.824961
19.796721 22.926140 1.834422
21.007074 22.900234 1.835072
17.397533 23.047207 1.844036
18.262918 23.217356 1.876285
9.025723 22.027380 2.177259
9.621074 21.750378 2.001524
11.329022 21.843075 2.202696
11.278460 21.898037 1.993841
13.328566 21.975634 2.200799
17.920250 21.841431 1.945925
20.473335 21.783136 2.067399
18.564795 21.844753 2.139694
23.504274 21.770443 1.962950
25.187037 22.022572 2.024398
23.233641 21.919123 2.107155
25.893188 21.780224 2.185417
11.314403 21.645195 2.342452
10.342699 21.649145 2.324223
16.176962 21.741608 2.293981
12.784388 21.776911 2.416638
5.847413 21.905626 2.270811
15.385230 21.996021 2.268814
13.587496 21.931917 2.305801
9.841658 22.069679 2.315971
12.523304 22.063000 2.295130
14.895862 22.016882 2.293184
14.199039 22.048237 2.309751
20.697903 21.917009 2.277890
17.350067 21.964039 2.247655
16.217073 21.625624 2.285375
19.163290 21.772516 2.302797
25.432699 21.614738 2.441808
17.779846 21.846352 2.360168
24.047626 21.901752 2.368753
21.460575 22.020758 2.382256
24.365929 22.063778 2.367156
16.952812 21.988083 2.423263
14.271488 22.156118 1.931423
7.354660 22.248892 1.993324
14.359767 22.378433 2.176321
14.678812 22.345230 2.224921
9.214372 22.310966 2.232874
8.912381 22.423370 2.226584
10.526110 22.378786 2.353547
13.890774 22.268890 2.317441
7.860208 22.398380 2.345254
10.630639 22.425627 2.302229
13.248094 22.437271 2.347444
9.127059 22.078150 2.478612
7.266892 22.251354 2.393572
20.828476 22.442331 1.902411
17.094807 22.184214 1.955782
21.712727 22.244678 2.252889
21.441381 22.282368 2.107330
25.216372 22.327450 2.198157
19.673159 22.236362 2.275824
16.407085 22.369137 2.288148
18.142529 22.371868 2.290073
23.547764 22.440138 2.360885
24.078857 22.251625 2.333322
18.014790 22.423246 2.415009
18.451475 22.135195 2.457474
22.801210 22.429972 2.414451
26.163097 22.193356 2.509424
6.383532 22.540398 2.170466
7.478767 22.846376 2.159639
8.534037 22.620045 2.200574
5.913705 22.555578 2.339660
9.972097 22.864180 2.224108
5.899446 22.895699 2.237647
6.275671 22.942574 1.901177
7.480561 22.980532 1.984845
6.671876 22.990942 2.162245
8.706843 22.964581 2.279143
6.867773 23.194168 2.041014
10.356871 23.138046 1.909351
8.402517 23.212288 2.233155
9.418704 23.298620 2.195288
15.726303 22.478958 2.152100
12.711995 22.474882 2.204715
11.211168 22.616632 2.148138
11.771915 22.860773 2.190564
14.416725 22.767042 2.225662
14.664911 22.785093 2.107647
15.361025 22.917164 2.198316
15.292605 23.214159 1.918644
12.519019 22.517189 2.299872
15.500307 22.454025 2.378369
11.699646 22.587080 2.375031
10.966966 22.791569 2.383016
11.173181 23.015749 2.352254
12.497354 22.801945 2.427993
13.264737 23.103960 2.383132
16.835104 22.509241 1.896255
17.389790 22.588207 1.921054
18.154457 22.554132 1.924704
18.924656 22.480368 2.301289
17.371872 22.567598 2.141484
16.747877 22.549688 2.249515
20.235661 22.586359 2.291432
19.280554 22.653078 2.255991
19.523869 22.721596 2.271126
16.707724 22.849667 2.266646
17.349823 22.842651 2.273380
18.807539 22.864719 2.265390
16.085556 23.276926 1.908323
17.828541 23.149685 2.270434
18.545855 23.081383 2.297940
17.986881 23.323795 2.293181
16.179808 23.074854 2.339758
19.757662 23.139517 2.350910
20.375656 22.707123 2.110632
20.526712 22.807524 2.000297
22.812475 22.863932 2.210665
25.641657 22.958942 1.937499
24.776798 22.451387 2.185044
25.282484 23.207365 2.158232
23.318964 23.235653 2.150380
20.844702 22.597467 2.278130
22.306973 22.701332 2.461004
21.763992 22.992392 2.279531
21.349072 22.892168 2.309893
20.698202 22.861237 2.488095
23.246494 22.987675 2.303620
23.631500 23.328520 2.260374
23.694605 22.451904 2.379134
24.552284 22.733742 2.323161
-15.137120 23.492313 -2.384541
-14.690883 24.030937 -2.373705
-13.799385 24.594973 -2.374689
-13.932595 23.376076 -2.352021
-13.232666 23.854803 -2.267131
-14.254836 23.664431 -2.265797
-6.840301 23.651815 -2.240184
-13.207025 24.749020 -2.274116
-13.206462 24.980228 -2.593359
-9.102031 26.034357 -2.535954
-14.706048 24.968819 -2.368968
-3.745031 25.539646 -2.661015
-3.832201 25.938181 -2.439173
-2.710460 26.122648 -2.590291
-3.486229 26.341240 -2.297544
-8.839901 27.043091 -2.174036
-5.504951 26.666422 -2.641096
-4.857461 26.504450 -2.280447
-3.549280 26.997234 -2.277198
-10.264095 27.296352 -2.548084
-7.833021 27.544893 -2.471340
-7.870770 27.755859 -2.508899
-0.117634 27.342352 -2.573062
-4.806527 27.920122 -2.374352
-2.957164 27.426760 -2.234764
-24.103567 30.741877 -2.641711
-4.063031 28.137732 -2.432444
-10.724610 28.940758 -2.586041
-10.531848 29.356649 -2.402799
-11.338017 31.356537 -2.258402
-14.608670 24.233229 -2.148772
-9.133115 27.150244 -2.131116
-10.575371 27.661798 -2.099129
-7.085700 27.645014 -2.102095
-5.783639 27.127815 -1.994441
-5.690460 27.121130 -1.993495
-5.558539 28.114904 -2.111262
-5.209617 24.397820 -1.995386
-4.991665 26.684917 -1.958218
-2.819332 27.179173 -2.094837
-4.314462 26.034370 -2.089607
-4.266973 25.806797 -1.971019
-1.358997 26.729126 -2.065447
-1.487750 26.257627 -2.035800
1.035960 26.007549 -2.054795
0.243801 26.147457 -2.141760
-0.283122 27.286682 -2.149810
1.648734 26.020086 -1.855932
-0.383605 25.865709 -1.806308
-1.606886 26.314428 -1.918089
-9.398408 26.295486 -1.788742
-4.977365 27.508656 -1.877878
-5.347176 26.851011 -1.828562
-7.716051 27.297096 -1.791416
-9.016539 27.107126 -1.752756
-3.185735 26.135405 -1.736467
-6.419598 27.472532 -1.762982
-10.063988 28.954351 -1.730493
-14.204196 23.472364 -1.702569
-13.556468 23.364441 -1.688604
-8.771529 26.829981 -1.702819
-5.459130 28.047409 -1.691185
7.485458 25.033207 -2.376022
8.555013 25.377113 -2.226398
10.892696 25.430351 -2.540420
11.013533 25.367514 -2.471631
11.796760 25.176878 -2.620414
11.835068 25.149832 -2.241344
13.831913 25.540478 -2.534013
13.901184 25.605488 -2.434591
5.245435 26.264610 -2.596172
4.496328 26.030409 -2.468819
6.604455 26.166502 -2.527473
8.470393 25.704290 -2.392584
9.899017 26.158291 -2.494039
13.141645 25.397785 -1.937147
11.036518 25.079603 -1.858157
11.117214 25.170460 -1.847637
11.031960 25.256334 -1.845136
6.390367 25.011034 -1.814564
13.883175 25.402719 -1.810502
14.138349 23.967815 -1.794681
2.338183 25.898441 -1.795315
10.368843 25.533518 -1.948022
5.285025 25.604548 -1.741457
5.351900 25.947475 -1.679568
5.933285 25.999844 -2.075527
6.092782 26.168127 -2.024461
5.993119 26.500950 -1.927126
13.679794 26.050575 -2.139749
14.844305 25.014397 -2.413023
14.916213 24.764788 -1.882263
14.563321 30.098700 -1.749215
15.346953 25.528049 -1.887009
15.980931 25.019228 -2.468900
15.249826 29.923203 -2.139777
16.990171 25.133829 -2.288454
17.140760 24.932079 -2.192642
17.730204 25.676716 -2.044083
16.726295 24.184816 -1.936695
17.646866 24.842466 -1.757763
19.517347 24.212366 -2.194194
18.185589 24.642529 -2.169515
18.558846 25.708509 -2.508421
26.347471 24.306551 -2.363574
27.223469 24.542622 -2.506018
20.966751 25.886936 -2.638704
21.425385 25.290550 -2.392982
19.777159 25.492664 -1.742088
20.117762 25.779869 -1.956309
21.295555 25.171263 -1.713259
21.233244 25.190865 -1.801646
25.777899 23.353401 -1.821915
26.080833 24.761560 -1.675066
25.940348 24.932690 -2.021451
-17.001974 24.651434 -1.660862
-9.450293 24.113214 -1.629557
-5.076794 23.503160 -1.408400
-10.657408 25.061474 -1.384434
-14.717219 23.749767 -1.321424
-14.411777 23.899326 -1.296140
-8.376028 24.751211 -1.272397
-3.503659 24.976126 -1.217107
-12.716264 24.168535 -0.832578
-6.654560 24.178637 -0.962797
0.166078 24.195993 -1.133135
-0.270535 24.686131 -0.971089
-4.761956 24.795809 -1.007963
-14.377316 24.723946 -0.908263
-8.445868 24.811617 -0.848892
-3.332657 24.848700 -0.841964
-15.644732 25.968962 -1.094648
-10.670726 25.814556 -1.402217
-10.236063 25.333796 -1.178545
-8.311877 25.502836 -1.049362
-15.482692 25.769531 -0.807631
-8.861297 25.931780 -0.806918
-6.003448 25.743965 -0.900447
-4.856940 25.390305 -1.155299
-3.997758 25.697523 -1.128983
-1.991365 25.422388 -1.267496
-4.290026 25.743799 -0.810556
-3.391726 25.398796 -0.869628
-0.436634 25.942812 -1.491736
-0.613433 25.626101 -1.079743
-1.310257 25.250519 -0.827447
0.553453 25.855930 -1.055093
1.125113 25.942781 -1.605147
-14.412649 26.374525 -1.345223
-12.946909 26.575804 -0.987428
-9.902450 26.009148 -1.052898
-8.905561 26.025703 -1.229282
-8.416345 26.420008 -0.992808
-8.550170 26.335329 -0.844400
-9.504565 26.551847 -1.387019
-9.031835 26.564154 -1.407429
-8.831269 26.549631 -1.273901
-8.238316 26.594715 -1.278436
-9.597545 26.719936 -1.298133
-11.912743 27.544533 -1.637882
-11.682567 27.246973 -1.403581
-22.832432 29.624659 -1.419379
-12.454103 27.038666 -1.105446
-14.712567 27.488594 -1.038421
-12.603208 27.093994 -0.930698
-8.288220 27.117165 -0.868812
-10.745246 27.625717 -1.106064
-9.975962 28.653429 -0.952394
-6.553702 26.046637 -1.144030
-5.135390 26.122322 -1.653038
-4.489285 26.023224 -1.199074
-4.541029 26.091515 -0.985397
-4.770996 26.392279 -1.283818
-6.733444 26.478348 -1.284061
-7.515526 27.217978 -1.073757
-6.376387 27.262964 -0.925795
-3.550566 26.944925 -1.339241
-3.734855 27.084620 -1.612348
-2.784702 27.190195 -1.353749
-1.540678 26.022924 -1.348940
-1.322689 26.324015 -1.446885
-2.539303 26.825502 -1.152814
-3.237054 26.553802 -0.811110
1.030140 25.995844 -1.227855
-1.269939 26.115076 -1.204448
11.932549 23.864565 -1.550674
10.598934 24.038364 -1.445722
10.347901 24.581848 -1.515809
14.496483 24.603010 -1.445708
13.248280 24.906059 -1.514621
12.910338 24.878403 -1.489499
14.156965 23.871920 -1.258842
11.723305 24.754086 -1.298569
13.315488 24.947653 -1.278545
5.530498 23.969500 -1.077218
10.550604 23.974096 -0.950091
5.531270 23.984560 -0.843311
11.806449 23.662741 -1.184490
14.772713 23.990181 -1.126675
14.586402 24.434706 -1.022148
11.107740 24.239334 -0.878945
11.174931 24.801466 -0.834835
14.800085 24.877916 -0.823491
16.865126 23.679358 -1.071254
15.715564 23.528269 -0.832644
19.253391 24.022915 -1.275571
18.249615 24.243309 -1.092264
18.584349 24.259113 -1.046845
19.767803 24.941446 -1.452599
27.575684 23.500307 -1.187605
24.328278 24.381563 -1.200441
